0.192335 0.088450 0.123590 
0.280802 0.070015 -0.063377 
0.301666 0.150088 -0.027893 
-0.006279 -0.368923 -0.341426 
0.110143 0.368240 0.273160 
-0.122325 -0.162142 0.233516 
0.206964 -0.080570 -0.064625 
0.147714 -0.018798 0.105835 
0.070873 -0.040766 -0.412583 
0.244304 0.428172 0.220355 
-0.022902 -0.415080 -0.353514 
-0.001543 -0.133945 -0.301589 
0.233273 0.418046 0.125303 
0.274997 -0.064799 -0.016260 
-0.330050 -0.021232 0.014922 
-0.098877 -0.129538 0.220152 
-0.061394 0.379711 0.269708 
0.257479 -0.207244 0.002737 
0.235800 0.467556 0.253902 
-0.065055 0.418430 0.270868 
-0.012895 -0.018816 0.145019 
0.182872 0.480088 0.218998 
-0.125976 0.188251 0.254360 
0.002549 0.398269 0.258441 
0.179891 -0.080199 -0.055041 
0.207438 0.377283 0.145234 
-0.002856 -0.126383 -0.310665 
-0.102178 -0.308419 0.197076 
0.267951 0.428007 0.085461 
-0.219007 -0.015676 0.173502 
0.248351 0.110316 -0.061859 
0.002997 -0.447773 -0.427027 
0.315954 0.468621 0.026742 
0.084154 -0.070274 -0.356633 
0.068915 -0.117860 -0.330565 
0.216648 0.139605 0.144687 
-0.000752 0.029367 0.199974 
0.296354 0.309294 0.045547 
-0.020943 0.505885 0.324512 
-0.359594 -0.023461 -0.225495 
-0.039937 -0.393251 -0.372690 
0.265914 0.049366 -0.077963 
-0.047044 -0.040790 -0.425907 
0.227528 0.358521 0.133478 
0.186214 -0.191169 -0.004855 
0.317398 0.412302 0.125606 
0.038119 -0.071054 -0.066320 
-0.146758 -0.170404 0.170656 
0.291382 0.102378 -0.036612 
-0.320759 -0.290455 -0.195863 
0.275531 0.080565 -0.024329 
0.187977 -0.057054 -0.297877 
-0.308771 -0.010261 -0.113052 
-0.315309 -0.070450 -0.038811 
-0.311357 -0.069998 0.043180 
-0.330494 -0.070026 -0.003836 
0.003894 -0.073352 -0.354204 
-0.142153 0.380632 0.269308 
0.224634 0.009337 -0.082419 
-0.281517 -0.016534 0.015847 
-0.091185 -0.010262 -0.012900 
-0.092167 -0.010277 0.116836 
-0.085086 -0.020225 0.215504 
-0.089611 -0.070071 -0.164056 
-0.078428 -0.070027 -0.171537 
-0.078527 -0.070028 -0.221452 
-0.151322 -0.101808 0.205545 
-0.274834 -0.161719 -0.153357 
0.177080 -0.067561 -0.293179 
0.120764 0.371108 0.270462 
0.247617 -0.250791 0.051639 
-0.023613 0.494314 0.357547 
-0.079016 0.460877 0.348711 
-0.006362 0.428990 0.332044 
0.346517 0.495166 0.028693 
-0.119578 -0.329194 0.260297 
-0.375364 -0.371078 -0.185305 
-0.130417 0.259963 0.281806 
-0.054053 -0.448896 0.288731 
-0.136340 0.095220 0.202882 
0.243053 0.156774 -0.025927 
0.067381 -0.080527 -0.271487 
0.246395 0.381477 0.105647 
-0.273530 -0.092516 -0.078775 
0.281032 0.357943 0.045104 
0.198408 -0.167953 -0.035600 
0.053201 -0.074428 -0.253014 
-0.110369 -0.338987 0.207882 
-0.139994 -0.073324 0.226745 
0.015366 -0.069621 0.244098 
0.028180 0.169645 0.262898 
0.188001 -0.009931 0.126626 
-0.152911 0.060117 0.214778 
0.286900 -0.418460 0.083935 
-0.308127 -0.059049 0.097322 
-0.297695 -0.067644 -0.271343 
-0.165829 -0.007840 0.134299 
-0.061917 -0.390666 0.286157 
0.256052 -0.140281 -0.003360 
-0.011836 -0.070838 -0.273281 
-0.001404 -0.161847 -0.298388 
-0.111571 -0.306393 0.260863 
-0.043491 -0.079979 0.014166 
-0.102789 0.516350 0.334723 
0.262328 -0.338198 0.010841 
-0.341052 -0.150054 -0.132659 
0.234374 -0.437757 0.091535 
0.215181 0.347725 0.183295 
0.266933 -0.279487 0.034588 
-0.073979 -0.279095 0.243956 
0.254422 -0.031298 0.097786 
-0.169863 0.227935 0.255943 
0.115059 -0.024780 -0.369516 
-0.331843 -0.119490 -0.100877 
-0.112773 -0.076246 0.126776 
-0.309308 -0.021669 -0.270292 
-0.370441 -0.350927 -0.172254 
0.228567 0.253493 0.121089 
0.013673 0.228722 0.245024 
0.201448 0.170176 0.107422 
0.268787 0.064583 -0.075862 
0.007788 -0.214097 -0.371175 
-0.261305 -0.019387 0.076362 
0.296598 0.141636 -0.013785 
-0.106905 0.279685 0.270148 
0.021620 0.278422 0.254925 
-0.364361 -0.033133 -0.007947 
-0.010911 -0.071028 0.084115 
0.315075 0.485542 0.044487 
0.024961 0.198659 0.263988 
-0.141950 0.072762 0.203429 
0.047496 -0.169354 -0.291759 
-0.140279 0.081350 0.196275 
0.009109 0.139178 0.252657 
0.327079 0.499110 0.045424 
0.238204 -0.447736 0.042489 
-0.345983 -0.179753 -0.128132 
-0.085593 -0.466776 0.288896 
-0.146514 -0.159823 0.220367 
0.042932 -0.101087 -0.349390 
-0.089342 -0.478272 0.275201 
-0.012977 -0.071583 -0.343796 
-0.117296 -0.415807 0.247722 
-0.146921 0.358131 0.292938 
-0.146921 0.486452 0.311634 
0.209435 0.268901 0.136827 
-0.131477 0.380114 0.310536 
0.016241 -0.003234 0.183931 
-0.126465 0.487789 0.349477 
0.198595 0.198697 0.135789 
0.274960 0.477061 0.222634 
-0.257347 -0.042151 -0.315623 
0.227813 -0.130249 -0.042405 
-0.266236 -0.158450 -0.118158 
0.098881 -0.020742 -0.374625 
-0.317234 -0.041933 -0.275600 
0.257030 0.018234 -0.089661 
0.050063 -0.238207 -0.352166 
-0.083881 0.498300 0.301972 
0.253281 -0.190013 -0.013714 
0.035882 -0.269374 -0.377518 
-0.101859 -0.075042 -0.138606 
-0.004175 0.019943 0.199791 
-0.004175 -0.210417 -0.314593 
-0.075528 -0.480696 0.282298 
-0.161483 0.207036 0.209035 
0.215736 0.038363 0.087189 
-0.295427 -0.287935 -0.147819 
-0.102641 0.309398 0.274145 
0.243283 -0.358088 0.010836 
0.026907 -0.292179 -0.329965 
0.138557 -0.025511 0.224917 
-0.084263 -0.217734 0.233299 
0.239127 -0.270263 -0.006186 
0.134808 -0.011793 -0.250500 
-0.291230 -0.011809 -0.263429 
-0.249503 -0.021776 -0.310162 
-0.277457 -0.039105 -0.301620 
-0.006227 -0.160141 -0.305062 
0.237048 -0.388713 0.019243 
-0.368003 -0.448611 -0.226985 
-0.269103 -0.122116 -0.144070 
0.017571 -0.378931 -0.415333 
0.252085 0.398013 0.096557 
0.031229 -0.069757 0.235200 
0.246665 0.329571 0.147099 
-0.356715 -0.040490 -0.242054 
0.030937 0.000144 0.200586 
-0.092576 -0.021907 -0.398452 
0.074335 0.348962 0.262198 
0.237497 -0.151151 0.031529 
-0.195632 0.068806 0.200802 
-0.185200 0.099241 0.186817 
-0.326234 -0.219925 -0.178375 
-0.032470 -0.350924 -0.391036 
-0.230055 -0.010910 0.043024 
0.055998 -0.149823 -0.354395 
-0.052229 0.477868 0.289863 
-0.340823 -0.317314 -0.137325 
0.036397 0.140285 0.253692 
0.128206 0.378843 0.271707 
0.218344 -0.112695 0.026592 
-0.344979 -0.269145 -0.181610 
-0.101219 -0.384347 0.212545 
0.256323 0.350226 0.157798 
0.028301 -0.204514 -0.371962 
0.037357 0.468338 0.275720 
0.226291 0.306579 0.136091 
0.068870 -0.022642 0.243626 
-0.033941 -0.018435 0.231215 
0.189575 -0.199247 0.015920 
0.027677 0.459039 0.272354 
-0.375827 -0.398784 -0.174074 
-0.290885 -0.157301 -0.091816 
0.199600 0.180887 0.142362 
0.256771 -0.227743 -0.001792 
0.230488 -0.049536 -0.232385 
-0.096651 0.346664 0.289934 
-0.168003 0.066470 0.167996 
0.276820 -0.051867 0.032572 
0.330650 0.359737 0.017259 
-0.128889 -0.224982 0.238611 
0.217570 0.356220 0.141112 
0.000171 -0.478300 -0.409437 
-0.302355 -0.321042 -0.192417 
-0.344083 -0.238924 -0.171818 
0.314799 0.448821 0.016840 
-0.015681 -0.409142 -0.423863 
0.250129 0.049683 -0.030527 
-0.000237 0.099241 0.225271 
-0.096202 -0.170389 0.230238 
0.289779 -0.437886 0.084142 
0.260154 -0.033833 0.088746 
0.265078 -0.064479 -0.090257 
-0.129576 0.366565 0.258739 
0.283951 0.398101 0.045752 
-0.137074 0.501499 0.313483 
-0.289944 -0.123471 -0.159788 
-0.257245 -0.068658 -0.290091 
0.191327 0.377492 0.159266 
0.234726 -0.232103 0.050141 
0.276453 0.260105 -0.024619 
0.196340 0.385596 0.154813 
-0.052356 -0.398858 0.226506 
0.244750 -0.342986 0.083241 
0.225557 -0.010404 0.073562 
0.008158 0.368833 0.259288 
-0.123792 0.408100 0.324683 
0.096218 0.484331 0.273699 
-0.225501 -0.049117 0.190963 
0.207096 -0.069839 -0.220783 
0.211280 0.388444 0.226569 
0.207220 0.408084 0.239114 
0.207220 0.398124 0.234411 
0.207220 -0.069053 -0.233320 
0.281914 0.321093 0.000802 
0.288771 0.447927 0.062472 
0.036560 0.495616 0.341329 
-0.075538 -0.079823 -0.103903 
-0.308101 -0.122485 -0.160077 
-0.181247 -0.074483 0.174517 
0.258564 -0.211053 0.013607 
0.197644 0.495961 0.264405 
0.103349 0.352049 0.254144 
0.044069 -0.018824 0.123994 
0.290925 0.121790 -0.051814 
0.198499 0.088719 0.130191 
0.254000 -0.309668 0.068848 
0.276535 -0.041040 0.036172 
0.218956 -0.348973 0.072020 
0.020333 -0.071709 -0.042216 
0.198092 -0.179786 -0.030840 
0.001556 -0.346203 -0.335333 
-0.113302 0.298270 0.239760 
0.296991 0.497517 0.104923 
-0.083977 -0.237888 0.239675 
0.187252 -0.068539 -0.273202 
0.324538 0.347695 0.045827 
0.181833 -0.111916 0.006296 
-0.131125 0.495804 0.301464 
-0.016374 -0.278910 -0.372288 
0.120912 -0.058032 0.238619 
-0.354351 -0.280289 -0.173730 
-0.103019 -0.326963 0.270173 
0.024539 0.493444 0.304285 
-0.121508 0.513787 0.324480 
-0.295509 -0.269129 -0.137416 
0.247390 -0.333977 0.006571 
0.164759 -0.024739 -0.309538 
0.196054 -0.010676 -0.093301 
-0.082266 -0.261178 0.246528 
-0.061402 -0.020572 0.234871 
-0.068212 -0.010566 0.115432 
-0.179902 0.169258 0.235859 
-0.207856 -0.000666 0.172959 
0.251148 0.089465 -0.018670 
0.284114 0.269149 0.036423 
0.296217 0.130412 -0.033756 
0.093920 -0.020620 0.225092 
-0.042091 0.417413 0.269256 
0.061295 -0.090702 -0.341091 
-0.020489 -0.400902 -0.421254 
-0.267514 -0.021876 0.121926 
0.285378 0.129834 -0.008226 
0.306241 0.436456 0.157045 
0.005387 -0.260416 -0.382825 
0.275089 0.476024 0.108703 
0.252004 -0.480897 0.066311 
0.218630 -0.321071 0.064126 
0.229062 0.080549 0.111898 
-0.323830 -0.018894 -0.030851 
-0.259568 -0.021212 0.123939 
0.274131 0.428007 0.075500 
0.256608 -0.149823 -0.003982 
0.204449 -0.088727 0.025533 
0.207511 0.021952 0.079387 
-0.079291 -0.198986 0.223379 
0.066756 -0.166513 -0.314813 
0.224905 -0.296333 0.001740 
0.266633 -0.483553 0.075556 
0.216144 0.069835 0.127812 
0.212518 0.428032 0.152489 
0.113678 -0.016994 -0.340271 
0.033382 -0.311095 -0.382299 
0.333407 0.496691 0.144833 
-0.177757 0.098548 0.179983 
0.371385 0.486728 0.040666 
-0.336314 -0.269975 -0.188235 
-0.303348 -0.042427 0.111243 
0.317148 0.510413 0.115707 
-0.119522 0.337320 0.300888 
0.299218 0.387800 0.017448 
0.229536 0.321458 0.167202 
-0.290761 -0.018786 0.022376 
0.281695 0.097448 -0.019926 
0.106024 -0.068644 0.224534 
0.024239 -0.435102 -0.385246 
-0.080080 -0.071313 0.125454 
-0.120137 -0.196720 0.164329 
0.027581 -0.270128 -0.382774 
-0.092590 0.370420 0.267219 
0.236991 0.154817 0.135018 
0.146936 -0.070484 -0.054557 
0.023424 -0.017515 0.164306 
-0.336681 -0.110225 -0.113620 
0.185823 -0.021156 -0.261454 
0.039550 0.273180 0.240800 
0.259202 -0.417030 0.024026 
-0.006752 -0.010624 0.105404 
-0.083381 -0.479271 0.281124 
0.281544 0.085608 -0.061858 
0.076439 -0.025683 -0.399714 
-0.116349 0.429045 0.332688 
0.007497 -0.413385 -0.351560 
-0.064595 -0.292276 0.228025 
0.229169 0.049501 -0.063764 
-0.355018 -0.480351 -0.195044 
0.239194 -0.087674 0.013833 
0.155738 0.476518 0.234258 
-0.125959 -0.273640 0.242061 
-0.070422 -0.474886 0.248765 
-0.305344 -0.376890 -0.164221 
0.086152 0.388105 0.228029 
0.246049 0.151375 -0.043446 
0.247140 -0.447586 0.037548 
-0.337047 -0.330384 -0.210654 
0.177036 -0.071420 -0.075445 
0.124891 0.492590 0.275822 
0.187482 0.361373 0.169790 
-0.194164 -0.030078 0.211139 
-0.141327 0.269110 0.283614 
-0.074223 0.478097 0.289744 
0.218370 0.327909 0.145744 
0.208319 0.182176 0.149529 
-0.155508 0.308476 0.254633 
-0.249395 -0.013433 0.043139 
-0.289452 -0.021777 0.094297 
0.244247 -0.022079 -0.140693 
0.266781 0.417990 0.192622 
-0.294872 -0.335888 -0.176403 
-0.185540 0.108198 0.223939 
-0.011724 -0.025292 0.263206 
-0.329916 -0.017009 -0.051967 
-0.119607 0.478614 0.349987 
0.283488 -0.473527 0.073350 
0.217094 -0.018830 -0.022445 
-0.125434 -0.358040 0.238210 
-0.306526 -0.417324 -0.203763 
0.056241 -0.010915 -0.369818 
0.192131 0.121261 0.106272 
0.214662 0.288263 0.136821 
-0.140023 -0.069191 -0.352144 
-0.341978 -0.161787 -0.141810 
-0.180487 0.106134 0.229837 
-0.064065 -0.065399 0.254890 
0.290620 -0.457294 0.064870 
-0.187578 0.109265 0.195423 
0.083652 0.492972 0.293931 
-0.132356 0.203925 0.208104 
0.043188 0.111625 0.234707 
-0.341122 -0.480413 -0.202908 
0.068768 -0.019143 0.113136 
-0.148777 -0.197148 0.205926 
-0.052778 -0.011749 -0.392896 
-0.287700 -0.112910 -0.157348 
0.083203 0.458650 0.255042 
-0.117448 0.209180 0.224839 
-0.070852 -0.286393 0.207742 
-0.020065 0.437886 0.338153 
0.201785 -0.266465 0.018596 
-0.191286 -0.070561 0.185147 
0.257286 -0.199403 0.004935 
0.185934 -0.069038 0.163782 
0.234892 0.448629 0.244781 
0.250117 -0.057174 -0.176127 
0.189275 0.089114 0.115029 
-0.257626 -0.031947 -0.312209 
0.054924 -0.013985 -0.390009 
-0.007668 0.039390 0.214928 
0.193880 -0.049736 -0.292541 
0.061606 0.448442 0.331101 
-0.101963 -0.024488 -0.397170 
-0.307260 -0.218125 -0.108232 
0.280269 0.502002 0.185352 
0.368466 0.468063 0.066092 
0.215599 0.019951 0.115967 
-0.305996 -0.368651 -0.158903 
0.251907 -0.030073 -0.159616 
0.253578 -0.289973 0.061047 
-0.328938 -0.031282 0.063245 
-0.315165 -0.025384 0.073341 
-0.177879 0.026563 0.158025 
0.197670 -0.019440 -0.213989 
0.324523 0.381912 0.006910 
-0.061458 -0.397980 0.218944 
0.053294 0.328389 0.273487 
-0.113800 0.212231 0.241651 
0.302660 0.448272 0.170537 
0.326692 0.456950 0.145363 
0.019920 0.091782 0.248546 
-0.350617 -0.072972 -0.093950 
-0.127898 -0.017011 0.155175 
-0.119852 -0.308980 0.207680 
-0.141123 -0.110036 0.215589 
0.020368 0.350529 0.273847 
-0.311783 -0.018910 -0.013276 
-0.322215 -0.437878 -0.170226 
-0.101474 -0.230589 0.244315 
0.284507 -0.040422 -0.032631 
0.235689 -0.149999 -0.038586 
0.249841 0.447810 0.120389 
0.226928 0.071916 0.106461 
0.258224 0.149198 -0.054564 
0.000767 0.079304 0.234356 
0.282408 0.336587 0.044624 
0.068371 -0.050966 0.258931 
-0.302166 -0.227175 -0.113055 
0.156838 -0.070908 -0.064763 
0.358386 0.487620 0.109999 
-0.340552 -0.189650 -0.115114 
-0.161539 -0.010689 -0.332990 
0.101778 -0.010261 -0.228487 
0.108751 -0.020223 0.094335 
0.112590 -0.020223 0.172267 
0.089798 -0.019855 0.103239 
0.109560 -0.070106 -0.311898 
0.107474 -0.070379 -0.301759 
0.127254 -0.070028 -0.049683 
0.107082 -0.070053 -0.326580 
0.103502 -0.070034 -0.248899 
0.098296 -0.069992 -0.361535 
0.096786 -0.070028 0.154319 
-0.151514 0.118385 0.184232 
0.048363 -0.080752 -0.262312 
-0.002126 -0.070279 -0.143555 
-0.073479 -0.445584 0.229983 
0.176887 -0.021078 -0.272330 
-0.071808 -0.419029 0.293015 
0.336708 0.515854 0.095422 
-0.132583 0.177074 0.202987 
-0.295323 -0.079877 -0.221512 
0.236993 -0.020212 -0.133081 
-0.214938 -0.010512 0.058218 
0.294609 0.386597 0.140309 
-0.073489 -0.070085 0.232780 
0.310762 0.507937 0.141019 
0.111403 0.352457 0.235887 
0.372200 0.489658 0.072793 
-0.000007 -0.025483 -0.425287 
0.335485 0.504319 0.046264 
0.003334 -0.136813 -0.293740 
0.266237 -0.299962 0.054862 
0.198225 0.138697 0.140016 
-0.017503 -0.326966 -0.397577 
-0.078424 -0.071607 0.218288 
0.036364 -0.216913 -0.371046 
0.257068 0.418046 0.095422 
-0.022923 -0.306997 -0.351337 
0.254990 -0.015960 -0.026167 
-0.080910 -0.428215 0.293917 
0.224957 -0.255434 -0.011298 
0.257924 -0.075049 -0.002072 
0.217459 0.179045 0.151762 
0.217459 0.266221 0.125924 
-0.354625 -0.056636 0.018472 
-0.092157 -0.019295 0.164885 
-0.266158 -0.066573 -0.291201 
-0.348134 -0.411835 -0.231622 
0.236245 0.328805 0.167876 
0.072676 -0.138420 -0.312625 
-0.082132 -0.289051 0.196226 
0.117745 -0.020473 0.215029 
0.007188 -0.070070 -0.243048 
0.021520 -0.070065 -0.392220 
0.008508 -0.070028 0.156688 
0.228747 0.049461 -0.053988 
-0.063347 -0.309401 0.244370 
0.051404 0.276435 0.254508 
-0.136093 -0.049224 -0.383975 
-0.054838 0.503245 0.313947 
-0.378382 -0.448042 -0.211704 
-0.337122 -0.214331 -0.115942 
-0.053730 -0.460320 0.287129 
-0.279890 -0.088456 -0.072143 
0.196229 -0.218630 0.025597 
0.135308 -0.040461 -0.366576 
-0.110046 -0.099909 0.145824 
0.258413 -0.458872 0.101788 
0.091502 -0.025765 0.243042 
-0.002385 -0.480463 -0.401823 
0.239220 0.128657 -0.024776 
0.032252 0.069438 0.209767 
-0.160942 0.090548 0.231591 
0.297946 0.458405 0.185004 
-0.011321 -0.076322 -0.003598 
-0.070804 0.488062 0.296295 
-0.373329 -0.465794 -0.209882 
0.139505 0.436395 0.214443 
-0.147576 0.326325 0.289711 
-0.116280 0.238532 0.266180 
0.207109 -0.068009 -0.243454 
-0.072882 -0.483650 0.274339 
0.180825 -0.097828 -0.036367 
-0.146222 -0.079960 -0.129220 
0.215463 -0.031282 -0.250907 
0.309350 0.209544 -0.023360 
-0.135881 -0.090151 0.217601 
-0.077539 -0.019792 0.165056 
0.234248 0.120006 0.115076 
-0.002867 -0.070120 -0.375057 
-0.331153 -0.341873 -0.214615 
0.191302 -0.215355 0.008804 
-0.312368 -0.378705 -0.154964 
-0.307356 -0.049736 0.104879 
0.195047 -0.226769 0.014932 
-0.102466 -0.237749 0.179732 
-0.306092 -0.100913 -0.081361 
0.038161 0.331022 0.279478 
-0.351569 -0.069473 -0.225407 
0.276017 0.118541 -0.062779 
-0.360995 -0.021279 -0.060958 
0.096981 0.379999 0.286977 
0.362813 0.430463 0.042638 
-0.116963 0.234665 0.227003 
-0.303158 -0.398523 -0.203051 
-0.072673 -0.016292 0.145221 
-0.311791 -0.351581 -0.148875 
0.313567 0.508797 0.109346 
0.016482 -0.430357 -0.365233 
0.019823 0.501272 0.341924 
-0.324430 -0.090409 -0.086325 
0.001361 0.502764 0.343875 
0.263099 -0.348817 0.081338 
0.097859 0.362426 0.273151 
0.316929 0.389162 0.006793 
-0.213428 -0.009408 0.168348 
0.041555 0.396809 0.247209 
-0.102426 0.388280 0.264050 
-0.104504 0.511736 0.316734 
0.105805 -0.026077 -0.379271 
0.067419 0.347543 0.255632 
-0.339823 -0.373542 -0.144935 
-0.358619 -0.062727 -0.002543 
0.248103 -0.242237 -0.008984 
-0.155400 0.427079 0.313473 
-0.120763 0.180345 0.237796 
-0.223411 -0.017066 0.097676 
0.233553 0.082373 -0.054496 
-0.077772 -0.199958 0.185650 
0.028218 0.100058 0.249659 
0.167174 -0.074282 -0.056282 
0.024469 0.346463 0.263166 
-0.079850 -0.161800 0.203259 
0.285267 0.148220 -0.054210 
-0.191260 -0.064356 0.204540 
0.039913 0.341617 0.283704 
0.113013 -0.020670 -0.361207 
0.239790 -0.179337 0.036691 
0.244802 -0.059049 -0.186183 
0.246473 -0.021235 -0.132459 
0.277769 -0.478471 0.067536 
0.227280 -0.338854 0.011753 
-0.167462 0.120085 0.239658 
-0.331031 -0.277411 -0.127775 
0.246213 -0.020343 0.036239 
0.019905 -0.111324 -0.281291 
0.252749 -0.467821 0.097212 
0.268833 0.449409 0.096568 
0.288711 0.214361 -0.039180 
-0.049717 0.457842 0.281256 
-0.272596 -0.149657 -0.102788 
-0.318073 -0.131705 -0.159918 
-0.130298 -0.229195 0.182696 
0.018219 -0.303657 -0.329680 
-0.292197 -0.109650 -0.082767 
0.174986 -0.021494 -0.282090 
0.283229 0.199728 0.017956 
0.336652 0.515624 0.085516 
-0.119011 -0.064137 -0.379349 
-0.108579 -0.198201 0.164575 
0.133026 -0.032015 0.234193 
0.028707 0.486289 0.293768 
-0.113998 -0.147174 0.149627 
-0.081032 -0.269790 0.193958 
0.212732 0.208356 0.111205 
0.214107 -0.134725 0.033038 
-0.067259 -0.283294 0.225406 
0.116767 0.437397 0.305382 
-0.006219 -0.016560 0.133482 
-0.130258 -0.278005 0.215677 
0.245119 0.458260 0.242888 
0.154746 -0.071941 -0.046817 
0.260735 -0.369253 0.014257 
0.208576 0.398006 0.145225 
-0.311349 -0.268653 -0.125578 
0.288232 0.305841 -0.010318 
-0.284287 -0.010659 -0.259812 
0.303726 0.166562 -0.031624 
-0.020070 -0.337636 -0.400565 
-0.154015 0.197839 0.203355 
0.215199 -0.166776 -0.041058 
0.049204 0.436829 0.257272 
-0.147332 0.328779 0.256550 
-0.010818 -0.155310 -0.323056 
-0.349559 -0.203445 -0.143587 
-0.005034 -0.321235 -0.334323 
0.007069 0.449705 0.272602 
-0.149410 0.358226 0.284287 
0.051513 -0.205592 -0.360362 
0.276220 0.428047 0.188522 
0.194436 0.149123 0.107191 
0.060492 -0.063478 -0.409185 
-0.122271 -0.129206 0.146154 
-0.047577 -0.448746 0.281847 
0.047981 0.189376 0.253009 
-0.305033 -0.300783 -0.139142 
-0.032132 -0.019764 0.245397 
0.043795 0.489363 0.293947 
-0.108064 -0.408689 0.282692 
-0.012506 0.478502 0.356150 
-0.250769 -0.084271 -0.081566 
-0.374281 -0.049268 -0.217853 
0.058439 -0.026098 -0.411186 
0.014927 -0.010269 -0.382614 
-0.257814 -0.020282 0.105578 
0.209403 -0.018642 -0.156380 
0.315488 0.229613 -0.004477 
0.275674 0.457351 0.213184 
-0.103866 -0.076621 0.133348 
0.226206 -0.008568 -0.103780 
-0.345879 -0.189404 -0.124988 
-0.003704 0.056808 0.212714 
-0.292456 -0.240775 -0.126077 
-0.052522 0.375212 0.311592 
-0.095975 0.398299 0.265908 
0.286312 0.326888 0.046339 
-0.040827 -0.379337 -0.383515 
-0.339914 -0.021103 -0.005775 
0.125676 -0.040461 -0.375366 
-0.020370 0.408708 0.265070 
0.264633 0.288354 0.009196 
-0.131780 0.238125 0.216415 
0.015938 0.238657 0.244913 
-0.170166 -0.018858 -0.353892 
-0.378948 -0.392855 -0.183989 
0.236037 -0.070013 0.056876 
0.343932 0.379048 0.033615 
0.009295 0.370879 0.303072 
0.165774 -0.039218 -0.329292 
0.048945 -0.068338 -0.402525 
-0.074567 0.505800 0.358216 
0.255049 0.457088 0.120334 
0.000127 0.109226 0.225266 
-0.300728 -0.068539 0.085540 
-0.074880 0.408025 0.268427 
0.066419 -0.020136 0.126120 
0.292669 0.121542 -0.024059 
0.186271 -0.081304 0.022447 
-0.100810 -0.298608 0.195235 
0.013941 0.218753 0.254424 
0.015612 -0.100283 -0.281536 
0.318137 0.266507 -0.011021 
-0.213891 -0.017233 0.107429 
0.269319 -0.011637 -0.093640 
0.114511 -0.038747 0.244464 
-0.301095 -0.238708 -0.118563 
0.246377 0.129600 -0.052490 
-0.170900 0.188869 0.253156 
0.197559 -0.149696 -0.040036 
0.232196 -0.064865 0.123762 
-0.321078 -0.069834 0.032099 
-0.315184 -0.010255 -0.229504 
-0.329079 -0.020712 0.007510 
-0.313973 -0.070036 -0.027260 
-0.320695 -0.070028 0.015736 
-0.296490 -0.319218 -0.183000 
-0.043154 0.428235 0.272253 
0.024678 -0.010641 0.095239 
0.157094 -0.074602 -0.014412 
-0.086804 -0.010266 -0.363662 
-0.087616 -0.010262 -0.281888 
-0.081625 -0.020220 0.175147 
-0.125261 -0.070028 -0.223319 
-0.086620 -0.079988 0.065539 
0.265036 -0.449667 0.037481 
0.177551 -0.011540 -0.153176 
0.208847 -0.260626 0.000386 
0.043607 0.199095 0.230164 
-0.015643 -0.260289 -0.362982 
-0.005212 -0.073577 -0.123294 
0.027755 -0.416258 -0.371929 
0.246825 0.358193 0.176620 
0.008562 -0.011190 0.105644 
-0.001870 -0.426917 -0.354318 
-0.052359 -0.039285 0.268852 
0.255161 -0.154132 -0.014199 
0.216793 -0.150701 0.035510 
0.373271 0.478262 0.045612 
-0.077379 0.487575 0.360165 
-0.232538 -0.019116 0.102669 
0.346173 0.511861 0.056575 
0.005261 -0.119296 -0.341677 
0.032808 -0.031829 -0.425672 
-0.015366 0.415212 0.265722 
-0.139522 -0.159728 0.227060 
-0.200443 -0.010455 0.197922 
0.145481 -0.032052 -0.349788 
-0.143480 0.120443 0.189619 
0.023232 0.016896 0.231128 
0.337860 0.487232 0.143080 
-0.152440 0.246901 0.275030 
0.236801 -0.127629 -0.038384 
0.035120 -0.020114 0.148030 
-0.024735 -0.069659 0.244832 
-0.027243 -0.010678 -0.392596 
0.017405 0.038742 0.197941 
0.246907 -0.009396 -0.033316 
-0.001789 -0.079250 -0.093941 
0.354567 0.449934 0.084384 
-0.162016 0.050346 0.216241 
0.213533 0.298486 0.152657 
-0.139482 0.285933 0.230218 
-0.329334 -0.267114 -0.124752 
0.047885 0.368455 0.244227 
0.347223 0.476363 0.125328 
-0.021770 -0.078497 -0.000229 
-0.021906 -0.071731 -0.318577 
-0.028887 -0.018838 0.181818 
0.306702 0.310658 -0.007699 
-0.211256 -0.077572 0.055815 
-0.072693 -0.219437 0.204989 
-0.041397 0.468574 0.284983 
-0.310569 -0.121184 -0.085514 
0.014104 0.503041 0.324672 
0.078366 -0.021277 0.234841 
-0.109408 0.510744 0.351618 
0.246947 -0.202644 -0.019170 
0.020379 0.389884 0.252200 
-0.131087 -0.069036 0.233851 
-0.146939 0.487646 0.321526 
0.197314 0.388219 0.237481 
0.282440 0.388221 0.046336 
0.054609 -0.199679 -0.311871 
0.203997 -0.065399 0.161692 
0.009132 -0.464903 -0.415075 
-0.335121 -0.139562 -0.104972 
-0.006719 0.029050 0.223186 
0.234886 0.229223 0.150355 
0.208602 -0.348615 0.045279 
0.208602 -0.339275 0.045924 
0.272864 0.324265 0.024948 
-0.287118 -0.025064 0.111891 
-0.337607 -0.022136 0.012948 
-0.131046 -0.101735 0.217865 
0.060069 -0.179392 -0.350982 
0.218219 -0.186977 -0.034081 
-0.032703 -0.015805 -0.410955 
0.247436 0.179250 -0.013041 
0.247436 -0.002540 -0.102774 
-0.312546 -0.081214 -0.183627 
-0.371796 -0.465064 -0.190988 
0.088879 0.492762 0.324986 
-0.080532 -0.435676 0.225353 
-0.212805 -0.009463 0.178370 
-0.098054 0.511927 0.352296 
-0.158975 0.240453 0.220186 
0.188620 0.068808 0.114903 
0.254146 -0.336264 0.007544 
0.236623 -0.016361 0.072478 
-0.269529 -0.021212 0.113979 
-0.149765 0.298565 0.282903 
0.237886 -0.240262 -0.014538 
0.154431 -0.065159 0.211074 
-0.071730 -0.075148 0.185782 
0.134848 0.477419 0.315482 
0.265026 -0.047743 0.081557 
0.329288 0.455775 0.009433 
0.216208 -0.006376 -0.093323 
0.015339 -0.018866 0.154912 
0.287909 0.378805 0.141812 
-0.196057 -0.049524 0.211400 
0.055980 -0.063728 0.252954 
-0.030544 -0.466994 -0.378815 
0.177414 -0.074937 0.024491 
-0.060849 0.380469 0.315158 
-0.340874 -0.150891 -0.121703 
0.125005 -0.011670 -0.268224 
0.281326 -0.031752 -0.028612 
-0.135951 0.139226 0.197468 
-0.037052 0.478339 0.289789 
-0.179757 0.139086 0.196464 
-0.091289 0.398849 0.324116 
0.004269 0.156853 0.250446 
0.254634 -0.159618 0.015349 
-0.119466 0.283060 0.230864 
0.038906 -0.012202 0.224547 
-0.002822 -0.378410 -0.342424 
0.217919 -0.091898 0.024839 
0.002190 0.071896 0.235513 
0.262988 -0.308954 0.010002 
0.024725 -0.015994 -0.410153 
0.214197 -0.022022 -0.219274 
-0.140515 -0.149938 0.156847 
-0.186805 -0.069995 -0.313820 
0.019305 -0.446680 -0.383622 
0.338946 0.454164 0.006896 
0.191864 -0.213457 0.017806 
0.227536 -0.328925 0.009484 
-0.384606 -0.050935 -0.062974 
0.015149 0.017101 0.194259 
-0.151762 -0.069776 0.224184 
-0.146750 -0.066318 -0.361144 
0.200845 0.447550 0.174779 
-0.129635 0.486516 0.293191 
0.278881 0.377042 0.057581 
0.011882 0.068514 0.202532 
0.215882 0.028876 0.084281 
0.236745 -0.021185 -0.142828 
-0.123359 -0.014891 -0.373585 
-0.100825 -0.281708 0.256932 
0.058370 0.410712 0.245138 
-0.341166 -0.229308 -0.171810 
-0.057834 -0.073457 0.105499 
0.235480 0.309196 0.136915 
0.092232 0.387908 0.292485 
-0.023604 -0.464677 -0.373201 
0.031897 0.337587 0.255932 
0.042329 0.158815 0.226395 
0.106591 -0.031676 0.244175 
-0.116228 -0.090270 0.141019 
0.207161 0.040289 0.123708 
0.198400 -0.000419 0.123174 
-0.133751 0.112061 0.212150 
0.118286 0.450625 0.313501 
0.076558 0.477833 0.337715 
-0.216071 -0.078934 -0.218941 
0.339846 0.396941 0.072130 
0.206749 -0.281893 0.015159 
0.178799 -0.109751 -0.024133 
-0.040474 -0.047242 0.272176 
0.295221 0.198303 -0.038880 
0.143354 0.368786 0.198296 
-0.134566 0.278991 0.286667 
0.026925 -0.417978 -0.402282 
-0.138848 -0.173835 0.228646 
-0.346953 -0.239837 -0.134532 
-0.013132 -0.240853 -0.350583 
0.057814 -0.208356 -0.342963 
0.026110 -0.339489 -0.398225 
0.238688 -0.214753 -0.021261 
0.222239 0.051608 0.114834 
0.018612 -0.009365 0.241538 
-0.043979 -0.014131 -0.403974 
0.197626 0.369212 0.224428 
0.032386 0.277474 0.242516 
-0.023523 -0.299101 -0.358500 
0.157420 -0.013241 -0.226502 
-0.378664 -0.064379 -0.086138 
-0.378594 -0.064895 -0.146355 
-0.378597 -0.064569 -0.123354 
-0.034770 -0.465921 -0.409064 
0.193739 -0.058519 0.184509 
0.010176 -0.350267 -0.336860 
-0.092037 -0.366894 0.206312 
-0.290555 -0.067561 0.105517 
0.265678 0.280155 0.023165 
-0.292634 -0.229269 -0.119659 
-0.146587 0.050319 0.199832 
0.023665 0.019301 0.199431 
0.235645 -0.466281 0.067013 
0.197259 0.398124 0.241374 
0.190952 -0.020190 0.004221 
0.197259 -0.069006 -0.253241 
0.199380 -0.020211 -0.005820 
0.197259 0.408084 0.246169 
0.197259 -0.022067 0.165146 
0.185396 -0.070029 0.061808 
0.197684 -0.070013 -0.230762 
0.192154 -0.070027 -0.104496 
0.197259 -0.069705 -0.243241 
-0.166187 0.148147 0.190435 
0.035972 -0.382637 -0.391629 
0.264863 -0.327214 0.011826 
0.078759 -0.076200 -0.331923 
-0.231352 -0.076252 -0.245698 
0.189354 -0.015480 0.057674 
0.059040 -0.202299 -0.323103 
-0.139863 0.080842 0.206983 
0.009525 -0.091330 -0.284713 
0.315392 0.329190 0.045201 
0.247381 -0.049834 0.119934 
0.257813 -0.378349 0.015230 
0.238620 -0.001762 -0.039520 
0.177699 -0.007560 0.116908 
0.287030 0.492714 0.114845 
-0.302576 -0.309447 -0.190301 
-0.384361 -0.057013 -0.070519 
-0.361826 -0.310831 -0.171457 
-0.182813 0.157171 0.216201 
0.037928 -0.069949 -0.392691 
0.257874 0.495943 0.174114 
-0.367654 -0.332214 -0.176536 
0.214455 -0.002516 0.073344 
0.214455 -0.081148 0.030173 
0.047483 -0.154672 -0.359964 
0.266615 0.437967 0.206326 
-0.030898 0.398495 0.323840 
-0.114354 0.210081 0.233577 
-0.300458 -0.339215 -0.191595 
-0.018796 -0.071342 0.088718 
0.024603 0.029540 0.200451 
0.266166 0.284797 -0.002840 
-0.350946 -0.475112 -0.186299 
-0.088478 -0.074275 0.218055 
-0.076234 -0.077350 0.095074 
0.247014 -0.281093 0.060808 
-0.170262 0.160085 0.197152 
-0.182772 0.089565 0.179865 
-0.116839 -0.407573 0.239680 
-0.365535 -0.388238 -0.219022 
-0.181931 -0.068344 0.204615 
0.245777 0.355687 0.127084 
-0.187351 0.129210 0.204896 
0.156902 0.496546 0.274516 
0.188198 0.000651 0.119568 
0.254131 -0.068093 0.052847 
0.097652 -0.071688 -0.303005 
0.113950 -0.010262 -0.169438 
0.097264 -0.070212 -0.337041 
0.097652 -0.070812 -0.322926 
0.097652 -0.071273 -0.312965 
0.070616 -0.070028 0.038978 
0.133540 -0.070036 -0.010263 
0.096486 -0.070026 0.205928 
-0.158927 -0.071963 -0.179696 
-0.034621 -0.419591 -0.364397 
0.231189 -0.056636 -0.226055 
0.326747 0.506467 0.065421 
0.326747 0.509997 0.075500 
0.326747 0.511843 0.085461 
0.257065 -0.483620 0.075448 
0.237872 -0.301697 0.067800 
0.002950 0.118743 0.243107 
-0.304055 -0.079876 -0.212690 
-0.111801 0.516084 0.333948 
-0.007890 0.011836 0.200436 
-0.131402 -0.179236 0.161478 
0.038850 -0.298361 -0.372137 
-0.355892 -0.479510 -0.213040 
-0.022070 -0.015922 0.237378 
0.177807 -0.013557 -0.191694 
-0.310823 -0.096044 -0.159664 
-0.079650 -0.311363 0.264553 
0.026340 -0.367376 -0.406526 
0.205353 -0.032902 -0.269060 
-0.080057 -0.080812 0.176319 
0.212036 -0.339802 0.060773 
0.265867 0.268857 0.023761 
0.006820 -0.231214 -0.312124 
0.027603 0.379583 0.306381 
0.190765 0.069035 0.097204 
-0.129283 0.251686 0.278889 
0.215941 -0.039251 -0.257787 
0.359911 0.449462 0.070046 
-0.133032 0.179158 0.255995 
0.315541 0.507169 0.146100 
-0.162657 -0.080216 0.202567 
-0.339999 -0.289930 -0.194089 
-0.148883 0.225991 0.210988 
0.278825 0.310030 -0.002557 
0.280496 -0.056208 -0.047873 
0.208089 0.086925 0.089194 
0.250871 0.028473 -0.088219 
0.292599 -0.428745 0.055690 
0.346429 0.514326 0.105551 
-0.090041 -0.040224 -0.408156 
0.275219 -0.064548 -0.032746 
0.022590 0.447729 0.268735 
0.196226 0.096651 0.129810 
0.253151 -0.187269 0.024564 
0.315989 0.427903 0.007728 
0.255068 0.199380 -0.033007 
-0.047457 0.365554 0.284593 
-0.066651 -0.299253 0.244602 
-0.037560 0.365778 0.303481 
0.207921 -0.049796 -0.272280 
0.238809 -0.457219 0.048674 
-0.136740 -0.219634 0.184425 
0.031841 0.237948 0.232468 
0.250912 0.000064 -0.039465 
0.002216 -0.128763 -0.296644 
0.275117 -0.049526 0.043840 
0.212525 -0.015822 0.055313 
-0.119725 -0.274478 0.248648 
0.257595 -0.475749 0.092484 
-0.264001 -0.099197 -0.092866 
-0.121703 -0.377930 0.244934 
0.070440 -0.012376 0.084517 
0.215457 0.038669 0.119585 
-0.087066 -0.090525 0.189571 
-0.227354 -0.070331 0.079407 
0.053149 0.203894 0.243355 
0.326461 0.341172 0.037588 
-0.275248 -0.111506 -0.088787 
0.267211 -0.050896 0.072011 
-0.106667 0.325945 0.290415 
0.187647 -0.011588 -0.115726 
-0.214466 -0.029746 -0.340194 
-0.162575 0.039453 0.212826 
0.256858 -0.023963 -0.129673 
0.194692 -0.013932 -0.139543 
0.238850 -0.418766 0.094459 
-0.289836 -0.064053 0.115493 
0.026462 0.050718 0.233895 
-0.077857 -0.465391 0.292144 
0.278018 -0.345767 0.027263 
-0.043219 -0.438556 0.254737 
0.297285 0.368357 0.085127 
0.173772 -0.025064 -0.299553 
-0.341140 -0.089509 -0.135453 
0.067375 -0.071517 -0.362242 
-0.018158 -0.269791 -0.363264 
0.235549 0.217629 0.118305 
-0.075738 -0.064720 0.253103 
0.268515 0.002677 -0.048903 
0.000510 0.128381 0.225502 
-0.312330 -0.087924 -0.165863 
-0.290838 -0.270328 -0.162920 
-0.046520 -0.398689 0.235397 
0.278540 0.298312 -0.009656 
-0.003122 -0.070778 -0.363433 
0.301074 0.398045 0.017370 
-0.194645 0.075424 0.194643 
-0.192975 0.008277 0.200256 
0.318189 0.408464 0.003181 
0.194044 -0.204562 0.025826 
0.147530 0.350955 0.224829 
-0.361963 -0.399351 -0.157775 
-0.131499 -0.269587 0.224328 
0.108649 0.466876 0.249458 
-0.077368 -0.267722 0.243724 
-0.119095 0.474664 0.285423 
-0.032299 -0.339083 -0.371399 
0.115419 0.350832 0.242874 
0.224750 -0.232676 0.049948 
0.235182 -0.062727 -0.205040 
0.026544 -0.069262 0.244085 
0.174261 -0.001053 0.100156 
0.167171 -0.073635 0.015067 
0.233104 0.027428 -0.045153 
0.024466 -0.398578 -0.410661 
-0.065303 0.445824 0.341658 
0.055761 -0.033181 0.259317 
0.226014 0.467680 0.260516 
-0.379037 -0.438556 -0.193382 
0.053683 0.265941 0.257313 
0.053683 0.311172 0.261758 
-0.047294 -0.458153 0.278646 
-0.158704 0.298542 0.254871 
0.046736 0.367077 0.296715 
-0.376104 -0.063932 -0.061297 
0.232289 -0.073206 0.036828 
-0.117384 -0.377281 0.224966 
0.175755 -0.069300 0.172201 
0.323691 0.408004 0.112067 
0.271531 0.218730 0.021042 
-0.079813 -0.167574 0.183434 
0.236486 -0.248738 -0.012957 
-0.158256 -0.089237 0.154220 
-0.043505 0.509422 0.332350 
-0.346030 -0.387880 -0.148082 
0.032860 0.339662 0.280194 
-0.034855 -0.076330 -0.113952 
0.255272 0.226550 -0.012471 
0.048304 -0.229118 -0.360940 
-0.336006 -0.040242 -0.261370 
-0.136129 -0.049781 0.245093 
0.032534 -0.365003 -0.356851 
0.032453 -0.319802 -0.386781 
-0.155322 0.407800 0.285931 
0.246103 -0.058380 0.113001 
0.256535 -0.019617 -0.014541 
0.258206 -0.008513 -0.037139 
-0.073945 -0.014699 -0.394252 
-0.333072 -0.429386 -0.161194 
-0.101899 0.377911 0.312256 
0.193536 0.169163 0.134029 
0.226503 -0.234977 -0.018059 
-0.314286 -0.018675 -0.021329 
0.241947 -0.030073 -0.189499 
-0.027612 -0.398829 -0.417326 
0.166845 0.358249 0.233628 
-0.132339 -0.031269 0.241585 
0.256983 0.457928 0.232572 
0.256983 -0.020512 -0.004225 
-0.189918 0.040590 0.167310 
0.369656 0.470072 0.034207 
0.277440 0.362533 0.123166 
-0.143586 -0.216576 0.204165 
0.374261 0.480351 0.053283 
-0.126471 0.511531 0.332946 
-0.373496 -0.033400 -0.215806 
-0.119788 -0.259353 0.188844 
0.017498 -0.073323 -0.052245 
0.272876 -0.399049 0.090836 
-0.029650 -0.073165 0.087774 
0.060488 -0.033383 -0.415862 
-0.088353 -0.192990 0.230525 
0.275810 0.108344 -0.064825 
0.124545 0.387467 0.278127 
0.317074 0.455951 0.158561 
-0.036477 -0.366138 -0.394608 
0.305868 0.268465 0.033901 
0.036309 0.188110 0.224075 
-0.149795 0.032393 0.186404 
0.020458 0.268424 0.255135 
-0.375955 -0.030411 -0.205779 
-0.025969 0.447863 0.276614 
-0.122248 0.170288 0.225266 
-0.122248 -0.368333 0.232148 
0.027376 -0.017048 0.123822 
0.037572 0.469344 0.345491 
0.037572 0.288897 0.271833 
-0.073837 -0.258713 0.234032 
-0.000814 -0.040805 -0.431124 
0.043016 0.103729 0.223223 
0.045926 -0.259129 -0.361734 
-0.023710 -0.413839 -0.422398 
0.009211 -0.076897 -0.103262 
0.269438 0.372887 0.162960 
0.012552 -0.190020 -0.367912 
0.047189 0.339369 0.281971 
0.321761 0.306547 0.005907 
0.321761 0.300381 0.025916 
-0.372165 -0.361095 -0.191803 
-0.132231 -0.012584 -0.362798 
-0.151424 -0.178957 0.204584 
0.241205 0.243188 0.128841 
0.162550 0.350499 0.214900 
0.246252 -0.065198 0.092863 
-0.358800 -0.051615 -0.239046 
-0.040830 -0.388823 -0.392706 
-0.091319 0.379313 0.313022 
-0.341685 -0.279323 -0.132261 
0.306765 0.360150 0.065634 
0.256276 0.129296 -0.005271 
0.033457 -0.299352 -0.380847 
0.025615 -0.124260 -0.281641 
0.354768 0.437271 0.009344 
-0.110677 -0.078344 0.096191 
-0.109656 0.241567 0.246137 
-0.379026 -0.415989 -0.203538 
0.048493 -0.246872 -0.341163 
0.214047 -0.071742 0.046087 
0.286349 -0.467406 0.082619 
0.021395 0.101935 0.251685 
-0.008358 -0.010262 0.041350 
-0.003424 -0.070028 -0.153161 
-0.320332 -0.300613 -0.198681 
-0.012794 0.368537 0.269087 
-0.325752 -0.025385 0.054038 
0.013082 0.171305 0.258826 
0.278892 0.145877 -0.057365 
0.109569 0.427998 0.227678 
0.280563 -0.368432 0.074302 
-0.072452 0.367339 0.286629 
-0.385409 -0.031715 -0.158636 
-0.329908 -0.378183 -0.145781 
0.036880 -0.328356 -0.362919 
-0.001506 -0.019169 0.155541 
0.021028 0.140244 0.257833 
-0.111245 -0.040805 0.254016 
0.307702 0.199833 -0.023387 
0.144133 -0.067964 0.211429 
0.022291 -0.443035 -0.393530 
-0.141685 0.170236 0.256128 
0.137898 0.496451 0.294706 
0.243888 0.197105 0.127855 
0.243888 0.200717 0.132808 
-0.152525 0.030175 0.176824 
-0.129990 -0.219637 0.178334 
0.028159 -0.015550 0.243757 
0.247230 0.087623 -0.069884 
-0.291889 -0.278023 -0.154243 
0.281867 0.357815 0.025668 
-0.008556 -0.169483 -0.342534 
0.008559 0.151149 0.255442 
-0.116624 0.246269 0.270048 
0.199428 -0.195013 0.033658 
0.182152 -0.178503 -0.000230 
0.253097 -0.480866 0.084102 
0.273961 -0.310411 0.046644 
-0.350283 -0.067647 -0.003827 
0.007744 -0.428063 -0.357822 
0.185086 -0.186926 0.004971 
-0.154155 0.199424 0.265518 
-0.152484 -0.059085 -0.369733 
0.266463 -0.269224 0.025418 
0.248941 0.362461 0.118797 
-0.147472 0.258012 0.221170 
-0.356110 -0.368770 -0.218696 
0.010678 0.208864 0.245303 
0.241851 0.477269 0.249936 
0.054189 0.252328 0.255332 
0.113425 0.489300 0.273932 
-0.161653 -0.049745 -0.371156 
-0.375711 -0.418650 -0.213016 
0.109170 -0.063701 -0.379356 
0.049920 0.377317 0.300918 
-0.093281 -0.073323 -0.142178 
-0.343152 -0.457039 -0.172982 
0.242706 -0.109293 -0.033575 
0.173024 0.351596 0.214395 
0.289446 0.301104 0.044064 
-0.106967 -0.429144 0.234835 
-0.091139 0.467042 0.350855 
0.228525 0.029368 -0.053115 
0.025334 0.402655 0.316902 
-0.011409 -0.179594 -0.332887 
-0.011409 -0.199515 -0.332887 
-0.011409 -0.209476 -0.342847 
-0.174978 0.189193 0.215280 
-0.341888 -0.072769 -0.224999 
-0.347362 -0.013953 -0.104060 
-0.120218 -0.048348 0.252010 
-0.335205 -0.167647 -0.159310 
-0.083169 -0.167309 0.173780 
0.261084 0.200677 -0.038788 
-0.102362 -0.268705 0.187505 
-0.382353 -0.047738 -0.052798 
0.056541 -0.018406 0.115091 
-0.055622 -0.469241 0.249885 
-0.326852 -0.109529 -0.094442 
-0.225864 -0.071134 0.070690 
-0.121962 -0.011382 -0.362932 
-0.330522 -0.010263 -0.144420 
0.194336 0.168797 0.115300 
-0.300252 -0.049882 0.115857 
0.047882 -0.108552 -0.278581 
-0.139892 0.494110 0.307083 
-0.117358 -0.396357 0.235312 
-0.280719 -0.071127 -0.270391 
-0.101914 -0.228821 0.176557 
0.098928 -0.013566 -0.339599 
-0.086470 -0.030726 -0.406936 
-0.352087 -0.065494 -0.235351 
0.175999 0.355864 0.223965 
0.231500 -0.009288 0.089964 
-0.034717 -0.398562 -0.410796 
0.175630 0.494116 0.253216 
0.215592 -0.018820 0.045383 
-0.101058 0.469659 0.350724 
0.086717 0.496282 0.304279 
-0.130683 0.477616 0.345027 
-0.076853 -0.289343 0.252625 
0.157662 0.360865 0.242835 
-0.341399 -0.078556 -0.094719 
-0.120697 -0.395190 0.255610 
0.237294 -0.040659 -0.218012 
-0.312182 -0.201934 -0.175538 
0.261573 -0.049217 0.090028 
0.261423 -0.250476 0.006455 
-0.113976 -0.065181 0.243485 
-0.060145 -0.021659 0.244490 
-0.340136 -0.409504 -0.232061 
0.186842 0.052509 0.113167 
0.255746 -0.208894 -0.004882 
-0.119803 -0.239832 0.243812 
0.053874 0.358106 0.289498 
0.036268 -0.338601 -0.362678 
-0.066380 -0.298738 0.216106 
0.258273 0.238435 -0.013555 
0.289568 -0.379242 0.052324 
0.155624 -0.062735 -0.333646 
0.301671 0.188547 -0.033013 
0.045256 -0.011025 -0.381150 
0.247433 0.496677 0.225021 
-0.080709 -0.018437 0.155425 
0.045469 0.151837 0.241996 
0.045684 0.134285 0.227215 
-0.351384 -0.348153 -0.144989 
0.015023 0.218442 0.236476 
-0.108489 -0.074779 0.115675 
0.247867 -0.012099 -0.111589 
0.197378 0.010277 0.120641 
0.240776 -0.033449 0.128102 
-0.171488 -0.074310 0.142921 
-0.321691 -0.398932 -0.226133 
0.024395 -0.010877 -0.392241 
-0.328591 -0.049340 0.072658 
0.050109 -0.219234 -0.360897 
-0.130983 -0.158666 0.154345 
-0.367575 -0.440713 -0.175204 
-0.277856 -0.011658 -0.019536 
0.017597 -0.024825 0.261385 
-0.166435 -0.050174 0.229418 
0.070783 -0.016896 0.100975 
-0.081716 0.366582 0.297219 
0.212048 -0.269525 0.050290 
0.046808 -0.209572 -0.308822 
0.318038 0.509883 0.127269 
-0.260094 -0.019956 0.089991 
0.230834 -0.089934 0.020399 
-0.262459 -0.140887 -0.123473 
0.240858 0.069422 -0.029296 
-0.113827 -0.123008 0.223649 
-0.144384 0.052384 0.192071 
0.266326 -0.328764 0.070992 
-0.120493 -0.380417 0.235979 
-0.055800 -0.379055 0.219818 
0.217101 -0.240394 0.048648 
-0.313256 -0.016410 -0.260617 
0.197908 0.189290 0.138179 
0.022236 -0.168327 -0.287639 
-0.121575 -0.214553 0.241328 
-0.329108 -0.147075 -0.158407 
-0.191822 -0.000198 0.148519 
-0.223341 -0.014382 -0.314133 
-0.181798 -0.050313 -0.360775 
0.042692 0.169369 0.253786 
-0.124218 -0.146107 0.148461 
0.056466 -0.119313 -0.286098 
-0.374992 -0.029969 -0.047862 
0.210201 -0.070396 0.055693 
0.050638 0.209367 0.236925 
-0.010262 -0.021221 0.256933 
0.033116 -0.336918 -0.352445 
0.256796 -0.041083 0.101738 
-0.120021 -0.191648 0.237036 
0.255229 -0.301144 0.004647 
0.207973 0.220316 0.117532 
0.011437 -0.466343 -0.406973 
0.087802 -0.071849 -0.332752 
-0.167890 -0.010271 -0.323172 
0.268486 0.227761 0.021157 
0.040655 -0.132541 -0.357555 
-0.103910 -0.323301 0.201047 
0.337761 0.513882 0.114892 
0.139554 0.350852 0.226868 
0.316897 0.502689 0.075247 
0.061925 -0.069980 -0.384134 
-0.025686 -0.057847 -0.426341 
0.236783 0.338680 0.136810 
0.236783 -0.021087 0.115331 
0.293955 0.369766 0.115037 
-0.152947 0.070033 0.220414 
-0.078253 -0.172719 0.207282 
0.043181 -0.231163 -0.316116 
0.296889 0.504853 0.135398 
0.027330 0.119368 0.253110 
-0.024358 0.485680 0.360244 
-0.301404 -0.372571 -0.183694 
0.305009 0.232219 -0.028111 
0.320687 0.268398 -0.004687 
0.254346 -0.371690 0.091062 
-0.116191 -0.017447 0.155341 
0.365348 0.440974 0.042121 
0.201779 -0.211036 -0.019089 
0.245177 -0.139394 -0.031843 
0.046971 0.477114 0.280123 
-0.151235 0.266571 0.225253 
-0.109508 0.375143 0.260360 
-0.159997 0.288929 0.266079 
-0.207247 -0.039772 0.204490 
-0.156655 0.029469 0.169358 
-0.330656 -0.069982 0.005776 
-0.324870 -0.011864 -0.239490 
-0.330079 -0.010262 -0.178781 
-0.330656 -0.070397 -0.053988 
-0.331053 -0.010282 -0.211434 
-0.330656 -0.069053 0.025737 
-0.330656 -0.069705 0.015736 
-0.325919 -0.010682 -0.228657 
0.036132 -0.278987 -0.332630 
0.226666 -0.021057 -0.172035 
0.341591 0.496844 0.134121 
0.097208 0.477557 0.331086 
0.004021 0.070461 0.207536 
0.271502 0.418046 0.075500 
-0.081513 -0.242586 0.190272 
-0.039785 -0.056373 0.268815 
-0.319776 -0.119507 -0.155106 
-0.118900 -0.040157 -0.394173 
0.281526 -0.469737 0.089095 
0.317834 0.493649 0.052887 
0.018650 0.477968 0.287182 
-0.033340 -0.012425 -0.402323 
0.126311 -0.031848 -0.369354 
0.244403 0.009429 -0.041074 
0.058706 -0.057687 0.258748 
0.228404 -0.380806 0.087804 
-0.317657 -0.022079 0.052733 
0.016164 -0.457065 -0.403729 
-0.044757 -0.024118 -0.419109 
-0.172018 0.179356 0.206598 
0.189416 0.134102 0.115607 
0.274476 -0.475417 0.058657 
0.263625 0.497646 0.208240 
-0.093850 0.478796 0.356245 
-0.365619 -0.339057 -0.193195 
0.197704 0.107686 0.133102 
-0.298016 -0.112481 -0.159304 
0.035806 -0.128133 -0.281609 
-0.282572 -0.200979 -0.115088 
-0.013311 -0.070393 -0.143604 
0.273661 0.009674 -0.064240 
-0.350583 -0.428895 -0.231581 
0.249049 0.032217 -0.035467 
0.287027 -0.369545 0.044721 
0.027900 0.167845 0.217372 
-0.043453 -0.389179 0.246157 
-0.156533 0.019524 0.167947 
0.281608 -0.467715 0.057037 
-0.135669 -0.076324 0.104824 
0.109381 0.404978 0.219492 
-0.173078 -0.077740 0.084978 
-0.106452 0.308747 0.282614 
0.029163 0.218619 0.268029 
-0.096461 0.438625 0.275499 
0.232382 -0.140500 0.031064 
-0.320510 -0.171946 -0.169338 
0.202757 0.191597 0.145690 
0.279122 -0.337361 0.034261 
0.202349 -0.074460 -0.073965 
-0.352620 -0.267720 -0.151852 
0.026270 -0.338490 -0.342553 
-0.029638 -0.475104 -0.402026 
0.295422 0.167969 0.000521 
0.234501 -0.058676 -0.215724 
-0.255799 -0.092349 -0.130515 
-0.222833 -0.056699 -0.334790 
0.207388 0.089952 0.133754 
0.159683 -0.068506 -0.311107 
0.233264 -0.109811 0.021175 
0.215741 -0.063117 -0.244411 
0.022560 -0.070279 -0.239284 
0.069695 -0.065089 -0.402386 
0.036321 0.178594 0.261660 
0.215334 0.008761 0.079660 
-0.068903 -0.282120 0.234812 
-0.128919 0.149779 0.205874 
0.261666 -0.270221 0.007362 
-0.310418 -0.418370 -0.212867 
-0.299986 -0.139166 -0.085366 
0.226622 -0.069572 0.094852 
-0.367998 -0.472248 -0.193767 
-0.100517 -0.258558 0.185268 
-0.378837 -0.024916 -0.114838 
0.227885 -0.389285 0.023961 
-0.126800 -0.337975 0.228182 
0.207021 -0.288634 0.034912 
-0.005108 0.400461 0.321495 
0.000053 -0.260586 -0.321481 
-0.072970 -0.199626 0.205192 
-0.310243 -0.019956 0.009830 
0.262522 -0.316965 0.009407 
0.179067 0.492386 0.283561 
-0.233198 -0.017003 0.087803 
0.217091 -0.234277 -0.017148 
-0.168935 0.170728 0.200265 
0.043044 0.119966 0.239916 
0.366434 0.448916 0.035455 
0.209955 0.146359 0.097611 
0.275888 -0.050079 -0.075127 
-0.273754 -0.027247 -0.299643 
0.303435 0.208871 -0.030676 
-0.091307 -0.447381 0.233473 
0.275481 0.156255 -0.055558 
-0.002840 -0.445962 -0.362526 
0.198708 0.367733 0.154888 
-0.370035 -0.024645 -0.056601 
-0.130508 -0.259108 0.233270 
0.088562 0.369016 0.283018 
0.225601 0.122528 0.138067 
0.218757 -0.269999 0.055756 
0.241269 0.298561 0.153959 
0.189132 -0.179345 -0.022142 
0.065944 0.369519 0.238400 
0.279071 -0.027687 -0.063192 
0.176622 0.429062 0.184918 
0.089142 -0.013950 0.074035 
0.165782 -0.078605 -0.005202 
0.254250 -0.252065 -0.002484 
-0.130060 -0.318711 0.234644 
0.361911 0.467627 0.021059 
-0.357892 -0.012073 -0.176163 
0.115044 -0.011670 -0.288146 
-0.250231 -0.017009 0.067561 
-0.363311 -0.465403 -0.225810 
0.264274 0.157925 -0.054007 
0.217127 0.098579 0.092118 
-0.153877 -0.014582 -0.354092 
0.275969 0.386048 0.165050 
-0.148398 0.435378 0.322701 
-0.198886 0.049525 0.184975 
-0.145056 0.476972 0.296486 
-0.319057 -0.438234 -0.221612 
0.046060 0.318176 0.251909 
-0.360785 -0.031648 -0.233766 
-0.074111 -0.415945 0.218982 
-0.060338 -0.069191 -0.391987 
0.182938 -0.176843 0.008543 
-0.130019 -0.210006 0.236863 
0.179290 -0.126545 -0.023197 
0.179141 -0.133029 0.004673 
0.213826 -0.397786 0.048942 
0.017291 -0.358610 -0.410783 
0.361544 0.512257 0.067200 
-0.347826 -0.366285 -0.145231 
0.352783 0.418749 0.007379 
0.269327 -0.357989 0.081048 
-0.010664 -0.076774 -0.016077 
-0.000232 0.138886 0.234460 
-0.132505 -0.249263 0.196720 
-0.330712 -0.014599 -0.243047 
-0.267569 -0.014032 0.023329 
0.219694 0.161553 0.148957 
-0.009808 -0.199650 -0.323037 
-0.016898 -0.379564 -0.417774 
0.033926 0.497592 0.313259 
0.309017 0.285332 -0.015893 
0.032409 -0.332651 -0.389632 
0.221813 -0.388618 0.082397 
-0.299317 -0.183886 -0.097392 
-0.339839 -0.383237 -0.227552 
0.271895 -0.032698 -0.110351 
0.209390 -0.375793 0.048231 
0.137950 -0.021451 0.214981 
0.296100 0.208263 -0.036853 
0.022468 -0.011937 -0.400162 
-0.018981 0.477875 0.289162 
-0.040899 -0.072497 0.101061 
0.293614 -0.447926 0.074143 
0.243125 -0.100091 -0.033661 
-0.141185 -0.227751 0.206150 
-0.019751 -0.289712 -0.343741 
-0.143263 -0.187473 0.174932 
0.200990 -0.265774 0.028389 
-0.120729 -0.081906 0.134338 
0.277355 0.120168 -0.007897 
0.195570 -0.207133 -0.014591 
-0.240899 -0.081809 -0.133539 
-0.289717 -0.249391 -0.134832 
-0.142000 -0.218731 0.214621 
0.247322 0.341770 0.140046 
-0.011805 -0.482768 -0.402669 
0.000298 0.088601 0.234109 
0.240232 -0.056417 -0.206684 
-0.269218 -0.010323 -0.263873 
-0.156181 0.298707 0.274403 
-0.321421 -0.015352 -0.252515 
0.243574 0.208955 0.133851 
0.243379 0.181249 0.124967 
-0.033076 0.459618 0.280998 
0.192677 -0.089866 0.021211 
0.362929 0.469259 0.084065 
-0.094404 -0.229976 0.179583 
-0.031813 -0.079738 -0.024241 
-0.031813 -0.070279 -0.333021 
-0.070199 -0.018750 -0.404098 
0.286157 -0.458862 0.056454 
0.353353 0.398701 0.033415 
-0.338902 -0.206554 -0.168341 
0.215660 0.150910 0.146761 
-0.210378 -0.020252 0.194353 
0.217331 0.378516 0.216758 
0.361339 0.454857 0.018946 
0.030819 0.012257 0.212299 
0.177418 -0.020251 0.030702 
0.187298 0.408084 0.252395 
0.187298 0.398124 0.248660 
0.187298 -0.069567 -0.263162 
0.159891 -0.022098 0.202532 
0.187298 -0.020592 0.165146 
0.188024 -0.069997 -0.251037 
0.205564 -0.070017 0.113576 
0.187298 -0.019624 -0.004185 
-0.040941 0.367638 0.276893 
-0.060134 0.373555 0.274185 
0.228350 -0.400153 0.027631 
0.296212 0.430013 0.036678 
-0.182383 -0.012345 0.113297 
0.007062 0.126962 0.249343 
0.104291 -0.050863 -0.390757 
-0.000436 0.019603 0.229813 
-0.278346 -0.079613 -0.233221 
0.002906 0.099010 0.216581 
0.056736 -0.199289 -0.351678 
0.320876 0.278225 -0.003589 
