0.115731 0.233606 0.232665 
-0.044062 -0.234309 0.163954 
-0.119463 -0.264983 0.220895 
-0.351023 0.079470 -0.044029 
0.037834 -0.289502 0.330841 
-0.048261 0.222218 -0.201490 
-0.076356 -0.157657 0.141986 
0.061712 0.370689 0.108424 
0.043812 -0.494569 0.461820 
-0.139644 -0.207285 0.022309 
0.150322 0.072905 0.191663 
-0.209268 0.078998 0.029841 
0.376715 0.205135 -0.158747 
0.369050 0.181364 -0.252143 
0.276186 0.027522 -0.009590 
-0.155343 -0.313314 -0.295695 
-0.058635 0.270508 -0.179374 
-0.340998 0.152132 -0.076372 
-0.290396 0.037182 -0.063531 
-0.067891 -0.049342 -0.011063 
-0.161773 -0.158821 -0.068192 
-0.130140 -0.182928 -0.205901 
-0.046299 0.339386 -0.099652 
-0.010743 -0.165466 0.170859 
-0.037846 0.115298 0.255723 
0.089135 -0.541038 0.407673 
0.184830 0.136734 0.162426 
-0.219309 -0.113165 -0.463414 
0.258267 0.149520 0.056801 
-0.103733 0.326844 -0.178118 
-0.166002 0.085096 0.148101 
0.359788 0.214699 -0.098590 
-0.114795 0.079674 0.214477 
0.129634 -0.114496 0.138695 
-0.163056 0.224681 -0.036445 
-0.114488 0.288892 0.189255 
0.219242 0.174453 0.014742 
-0.073552 0.251812 -0.150766 
-0.181472 0.180547 0.166664 
0.066724 0.249631 -0.194208 
-0.129014 -0.318721 -0.291736 
-0.001092 0.165532 -0.296338 
-0.261132 0.036173 -0.133234 
0.178965 -0.186965 0.198844 
-0.108951 0.266304 -0.051882 
-0.028143 -0.494666 0.402591 
-0.199001 0.234272 0.076989 
-0.354179 0.092105 -0.172242 
0.280829 0.313114 -0.294603 
0.071809 0.346985 -0.046929 
0.047207 -0.508136 0.453030 
-0.296645 0.061769 -0.033133 
0.317867 0.306380 -0.240225 
-0.061138 -0.298407 -0.286198 
0.077797 -0.084768 0.019045 
0.034385 -0.262303 0.174376 
0.107677 -0.232933 0.074927 
-0.085933 0.224187 0.242977 
-0.130840 -0.182562 -0.245745 
-0.122976 -0.209667 -0.335019 
0.371233 0.257515 -0.241852 
-0.010464 0.122229 -0.074877 
0.009129 0.191658 -0.264204 
-0.036823 -0.224404 -0.087761 
0.205569 0.057676 0.093311 
0.103352 -0.389904 0.255180 
-0.319243 0.158468 -0.055829 
-0.062015 0.256290 -0.174453 
0.301376 0.222824 -0.159221 
-0.107320 -0.294381 -0.363949 
0.408113 0.157364 -0.078619 
0.079466 0.364897 0.050412 
0.151241 0.027952 0.027778 
-0.260570 0.140391 -0.146833 
-0.139200 -0.116641 0.101854 
0.347162 0.144752 -0.211327 
-0.186815 -0.176668 -0.450258 
-0.189675 0.146771 -0.050469 
0.186633 0.126197 0.131556 
-0.354412 0.062227 -0.168562 
-0.005094 -0.008776 0.220931 
0.083662 -0.410819 0.289851 
-0.005195 0.321639 -0.155005 
-0.199090 0.203706 0.086601 
0.202663 0.098350 0.116555 
-0.131212 -0.215715 0.023171 
-0.033079 -0.466989 0.452455 
-0.130866 -0.216858 -0.396838 
0.328700 0.306607 -0.242675 
0.137102 0.044059 0.194303 
-0.123738 -0.177796 0.088980 
0.150496 0.030671 0.012671 
-0.112601 -0.182143 -0.154561 
-0.042905 0.319719 0.211764 
-0.191200 0.245492 0.091112 
0.164801 0.224026 0.185311 
-0.014612 0.233100 -0.219213 
-0.012010 -0.145704 -0.174712 
0.093327 0.137250 -0.067537 
-0.164890 0.255723 0.151803 
0.088325 0.313874 -0.047967 
0.034704 0.376810 -0.000572 
0.214298 0.132726 0.111033 
0.134398 0.200321 -0.077301 
0.173323 -0.273947 0.139901 
0.178136 0.253940 0.083312 
0.153725 -0.340709 0.258321 
0.027346 -0.350452 0.249571 
-0.073905 -0.307337 -0.275751 
-0.162747 -0.215939 -0.452182 
0.195505 0.168806 0.132586 
-0.094733 0.351798 0.103041 
0.013656 0.124696 -0.205471 
0.070107 -0.365429 0.430159 
-0.263193 -0.011819 -0.265972 
0.329488 0.050440 -0.079499 
-0.206514 -0.315157 -0.343851 
-0.088298 0.268154 0.221452 
-0.267285 -0.009357 -0.258886 
0.152491 -0.270231 0.119232 
-0.020899 -0.110317 -0.184567 
0.010732 -0.208898 0.144370 
0.328745 0.187364 -0.055038 
-0.020459 0.353555 -0.069474 
-0.116256 0.020730 -0.002346 
-0.002750 -0.444037 0.382479 
-0.037841 -0.006380 0.219546 
-0.041382 -0.228397 -0.093696 
0.362204 0.093784 -0.039810 
-0.126525 0.364683 -0.190094 
-0.113314 -0.196835 -0.318977 
0.084682 -0.527149 0.324685 
-0.059513 -0.195685 0.091714 
0.387601 0.225445 -0.230180 
0.364231 0.076062 -0.061553 
0.199009 0.217251 0.056085 
-0.163394 -0.162892 -0.474716 
-0.158221 0.106111 0.178265 
-0.035572 0.379096 0.113970 
0.299030 0.048533 -0.006179 
0.029263 0.130174 -0.154747 
0.268805 0.076760 0.065051 
0.075787 -0.523117 0.329733 
-0.025916 0.090648 0.246560 
-0.084585 0.216800 -0.124513 
-0.079115 0.356576 -0.008254 
-0.001981 -0.117692 -0.024688 
0.031151 -0.211470 0.070648 
-0.074451 -0.021385 -0.009211 
0.208979 0.103374 0.114300 
0.014485 0.217775 -0.229394 
-0.000376 0.209360 0.271264 
0.239977 0.168623 0.027381 
-0.293124 -0.044822 -0.237772 
0.051495 0.099136 -0.075691 
-0.105671 -0.183269 0.096423 
0.049640 -0.081726 -0.008946 
0.306867 0.295935 -0.180015 
-0.105933 -0.286997 0.248944 
-0.113672 -0.282324 0.251691 
-0.087976 -0.102392 -0.172634 
-0.164562 0.184584 0.188610 
-0.268393 0.056418 -0.217880 
0.381301 0.145869 -0.038862 
0.133657 0.245465 -0.038174 
-0.024857 0.238423 -0.219509 
-0.095180 -0.088903 -0.123257 
-0.328615 0.093418 -0.193374 
0.034105 0.268979 -0.197573 
-0.046006 -0.030740 0.210331 
-0.243869 -0.158694 -0.402820 
0.021999 0.125549 -0.078117 
-0.113108 -0.179914 0.095531 
-0.359351 0.136606 -0.109101 
-0.004123 -0.003443 -0.053860 
0.039972 0.020848 -0.063577 
-0.037989 -0.092126 -0.130117 
-0.157790 -0.155080 -0.446249 
-0.019921 -0.203691 -0.068850 
-0.189240 -0.140841 -0.430937 
-0.153204 0.046977 0.104659 
-0.229597 0.153578 -0.075157 
-0.100647 -0.215623 0.227440 
0.131576 -0.347544 0.356773 
-0.188098 0.142271 0.108335 
-0.014693 0.295752 -0.177048 
-0.132712 0.299560 0.012503 
-0.007023 -0.163014 -0.217549 
0.106361 -0.513514 0.422465 
-0.252475 0.104677 -0.168680 
0.116782 0.284187 0.212251 
-0.082139 -0.240721 0.245590 
-0.114472 -0.290193 0.248473 
-0.063809 -0.227456 -0.156511 
0.063530 0.302904 0.229397 
-0.271383 0.032784 -0.281456 
-0.083660 0.131118 -0.078433 
0.027278 0.296182 -0.179602 
0.228008 0.086096 0.101433 
0.009877 0.001231 0.225024 
-0.198661 0.241342 0.035005 
-0.159344 -0.187017 -0.405991 
-0.007246 -0.414442 0.427020 
-0.125596 0.182830 -0.075153 
0.005341 0.092954 -0.070931 
0.019321 -0.386603 0.445560 
-0.116251 0.328597 0.094412 
-0.093480 -0.317533 -0.305407 
0.028369 -0.529298 0.368714 
-0.177320 0.148433 0.166247 
0.121040 0.113982 0.232402 
0.049753 -0.136179 0.199417 
-0.168184 0.119594 0.166924 
0.296797 0.186215 -0.159007 
0.062975 0.357418 -0.194026 
0.250930 0.034092 -0.039641 
0.140631 -0.543650 0.379563 
0.086569 -0.016357 -0.019606 
0.091753 0.276803 -0.115397 
-0.147190 0.065033 0.177341 
0.307320 0.263234 -0.306763 
0.128187 -0.368674 0.352640 
-0.099884 0.328757 -0.121515 
-0.025085 -0.473231 0.391112 
0.297169 0.162558 -0.159592 
0.172708 -0.309191 0.199537 
-0.333140 0.126180 -0.168943 
-0.321588 -0.025819 -0.211278 
0.021796 -0.523922 0.310279 
0.034156 -0.515687 0.306396 
-0.329477 0.109532 -0.183528 
-0.191287 -0.288474 -0.325661 
-0.281961 0.065490 -0.008137 
-0.051474 0.167692 -0.082774 
0.342055 0.287249 -0.248825 
-0.195415 0.243348 0.068254 
-0.173431 0.100617 0.145887 
-0.256494 0.184908 0.060219 
0.003003 0.352345 -0.087999 
-0.102686 -0.102958 -0.146853 
-0.171355 -0.124491 0.016393 
0.024104 0.250406 -0.215621 
-0.294898 0.081066 -0.271450 
0.125626 -0.387833 0.313711 
-0.018456 0.383658 0.035374 
0.028956 -0.538917 0.295957 
0.379402 0.235291 -0.189535 
-0.071963 0.180720 0.253473 
0.056035 -0.186272 0.228745 
0.058469 0.375677 -0.140295 
-0.119819 -0.211071 0.048227 
0.112361 0.052024 -0.060435 
0.094644 0.359032 0.065131 
-0.375478 0.125936 -0.094962 
-0.132558 -0.310788 -0.276240 
-0.006798 -0.153124 -0.012309 
0.007771 0.143003 -0.107117 
-0.153290 0.151322 0.194971 
-0.134155 -0.215815 -0.195244 
0.127308 0.100649 -0.063460 
0.071218 -0.543843 0.326543 
-0.180992 0.220026 0.154902 
0.262130 0.079631 0.075473 
-0.087785 -0.314967 -0.289578 
-0.286383 -0.033740 -0.237585 
0.217301 0.040186 -0.028208 
0.013575 0.164327 -0.301776 
-0.196720 0.216018 0.092863 
-0.070302 -0.242291 0.232539 
0.354700 0.284092 -0.226252 
0.048005 -0.476019 0.342004 
0.044422 0.148999 -0.130851 
0.019248 0.049993 -0.067842 
-0.276061 0.194220 -0.016931 
-0.115600 -0.071847 -0.006141 
0.128741 -0.135445 0.073202 
0.057852 -0.313009 0.387398 
-0.077120 -0.185327 0.157145 
-0.051369 0.343238 -0.062348 
0.103769 0.358157 -0.146215 
0.037952 0.343902 -0.075852 
0.165717 0.044871 0.014352 
-0.165150 -0.344348 -0.360115 
-0.023187 -0.054615 -0.033782 
-0.091679 -0.246391 -0.173876 
0.278351 0.109424 -0.132453 
0.335554 0.282099 -0.278337 
0.353179 0.062227 -0.077826 
0.053063 0.297228 -0.178519 
-0.133386 0.000359 0.075824 
-0.321467 0.163317 -0.008483 
0.103692 -0.554131 0.375976 
-0.022529 -0.469760 0.388801 
-0.254893 0.050277 -0.131104 
-0.060416 -0.068007 0.196248 
-0.187352 -0.179802 -0.448531 
0.095984 0.339116 -0.149577 
0.158418 -0.329208 0.189384 
0.271456 0.025946 -0.002403 
0.152841 -0.144137 0.194531 
-0.067138 0.211363 0.252644 
-0.115511 0.140166 -0.064031 
0.210264 0.032616 0.047790 
0.013640 0.140511 -0.122672 
-0.267922 -0.006614 -0.209002 
-0.015545 -0.436638 0.409306 
0.230597 0.152239 -0.023812 
-0.182763 -0.177128 -0.441858 
-0.175151 -0.369681 -0.325074 
-0.179242 0.145963 -0.045587 
-0.273606 0.165367 -0.109832 
0.344484 0.162688 -0.221639 
-0.282070 0.097735 -0.253647 
0.303495 0.333070 -0.239411 
-0.034380 -0.268139 -0.284366 
0.037406 0.362412 -0.054719 
0.144018 -0.311271 0.155793 
-0.048536 -0.201767 0.201574 
0.113678 0.193439 -0.066184 
-0.270770 0.050234 -0.242771 
-0.291717 -0.029457 -0.251730 
0.017511 0.121072 -0.192466 
0.121925 -0.147748 0.221518 
0.078739 -0.474752 0.430172 
-0.059902 -0.229967 0.029087 
-0.131388 0.292569 -0.007977 
0.136852 0.203012 0.224638 
0.059895 -0.526665 0.325185 
-0.346336 0.047149 -0.168999 
-0.027541 -0.139909 -0.245016 
-0.364100 0.042932 -0.072631 
0.167589 0.087381 0.171287 
-0.264206 0.074180 0.006671 
0.048065 0.171705 -0.282772 
-0.120425 0.043766 0.182367 
-0.082320 -0.086252 -0.136074 
-0.175772 0.269554 0.039404 
0.004808 -0.530470 0.338938 
-0.127252 -0.182390 -0.259396 
0.095090 -0.569538 0.334774 
-0.206988 -0.255357 -0.356561 
0.065854 -0.052582 0.005377 
0.039844 0.356427 0.173544 
-0.147905 0.241905 -0.036250 
0.092272 0.392723 -0.157111 
-0.067486 -0.201404 -0.318442 
0.005185 -0.161717 -0.009305 
-0.103547 0.164487 0.242469 
-0.191069 0.225139 0.101084 
0.098403 0.216802 -0.081810 
0.029277 0.080790 -0.076804 
-0.139801 0.362902 -0.193411 
-0.003347 0.125285 0.257739 
0.014526 -0.315439 0.352975 
0.017560 -0.193172 0.181880 
0.391979 0.189997 -0.103468 
-0.325339 0.144938 0.000809 
0.020410 -0.163944 0.196705 
0.124038 -0.013324 0.111918 
-0.210311 0.114240 0.086942 
-0.034301 -0.045658 0.206941 
-0.009791 0.168684 0.268517 
-0.069852 0.016749 0.212264 
-0.110481 -0.070142 -0.020317 
0.398387 0.173429 -0.153616 
-0.028161 -0.220285 -0.169094 
-0.002413 0.133899 -0.229472 
0.033566 0.309879 -0.170595 
-0.034477 -0.206802 0.141872 
-0.091461 -0.199052 -0.327297 
-0.158461 0.058316 0.076044 
0.130119 -0.007434 0.038996 
0.094560 -0.075137 0.040933 
-0.116708 -0.249793 -0.380472 
-0.045955 -0.086219 -0.025680 
-0.083539 -0.311102 -0.279273 
-0.067523 -0.081876 -0.180089 
0.015107 0.038817 0.233070 
-0.008228 -0.034387 0.219344 
-0.011717 -0.413468 0.386572 
-0.193367 0.245553 0.018269 
0.220859 0.117962 -0.046884 
0.051984 0.016891 0.222742 
-0.299767 0.076655 0.002809 
0.007498 0.130751 -0.245946 
0.005370 0.143177 -0.114571 
0.359207 0.163227 -0.217989 
-0.082066 0.204841 -0.085431 
0.056825 0.334065 -0.205398 
-0.004441 -0.096654 0.201342 
-0.073405 -0.227091 -0.116988 
-0.225041 -0.177026 -0.429149 
0.300319 0.257841 -0.176363 
0.072734 0.264909 -0.173419 
0.038251 -0.199668 0.215518 
0.042138 0.140303 -0.081556 
-0.064925 -0.298955 -0.251869 
0.061853 -0.266570 0.277837 
0.102857 0.409674 -0.179694 
0.063873 0.176502 0.265925 
-0.123614 0.079662 0.205291 
0.023926 -0.363421 0.429268 
-0.055843 0.158420 -0.081044 
-0.131394 -0.344556 -0.313585 
-0.340210 0.025329 -0.192574 
0.001248 0.248463 -0.214449 
0.405538 0.159218 -0.137397 
-0.343885 0.035857 -0.164859 
-0.070105 -0.174494 -0.307725 
-0.161910 0.331130 -0.197316 
0.113353 0.229130 -0.096513 
-0.088094 0.263539 -0.115605 
-0.159878 -0.352997 -0.357635 
-0.092294 -0.266168 -0.350155 
-0.102873 0.318554 -0.155969 
-0.060141 -0.229945 -0.111613 
-0.050513 -0.233105 -0.030844 
0.149341 -0.339351 0.268104 
0.282415 0.042952 -0.061835 
0.318572 0.310444 -0.274161 
0.106548 -0.576960 0.324496 
-0.278425 -0.045251 -0.242623 
-0.142106 0.322727 -0.162501 
0.142928 -0.271008 0.254818 
0.114866 -0.081966 0.082542 
0.033182 0.146726 -0.269306 
0.045241 -0.187077 0.217804 
0.122666 0.324355 0.050055 
0.076998 -0.434579 0.343356 
-0.064885 -0.196903 0.202880 
0.250243 0.080871 -0.074308 
-0.027438 0.080904 0.236447 
0.010668 0.126651 0.263530 
-0.265494 0.178793 0.053230 
0.137693 0.181163 0.226843 
0.014060 0.306388 0.235382 
0.083849 -0.431532 0.348836 
0.000042 -0.502494 0.421617 
0.147280 0.118094 0.209316 
-0.071301 -0.015527 0.203836 
-0.206825 -0.324291 -0.351456 
-0.009330 0.146340 -0.093599 
-0.379618 0.116903 -0.078169 
-0.173597 -0.145594 0.002741 
0.016314 0.208664 -0.241265 
-0.032654 0.154937 -0.224478 
0.240889 0.034357 0.036361 
-0.161928 -0.310744 -0.300539 
-0.013592 -0.201650 -0.182945 
0.022387 -0.541016 0.319041 
-0.135070 0.005769 0.082397 
-0.062655 -0.157070 -0.286130 
-0.264515 0.032720 -0.242909 
-0.148850 -0.212111 -0.263516 
0.116672 -0.390502 0.362079 
0.143339 -0.342194 0.304884 
0.283670 0.185760 -0.137967 
0.035514 -0.067882 0.207055 
0.186363 0.239246 0.120849 
0.147240 -0.213617 0.244727 
-0.070030 0.355674 -0.036736 
-0.077768 0.271705 -0.142840 
0.123072 -0.260067 0.267182 
0.299545 0.132524 0.011402 
-0.145850 -0.366130 -0.344992 
0.125675 0.292496 0.194623 
0.044230 -0.285118 0.269239 
-0.305691 -0.034980 -0.182904 
0.164083 0.087874 0.178647 
0.112233 0.070969 0.222562 
-0.116086 0.015317 0.004077 
0.319627 0.250260 -0.150890 
-0.021731 -0.439103 0.436325 
-0.253244 0.158758 -0.087526 
0.138647 0.295221 0.030245 
-0.169972 -0.158384 0.006035 
0.311202 0.064909 -0.147464 
0.279926 0.054510 0.044048 
0.285653 0.106807 0.052560 
0.046665 0.270132 -0.196683 
-0.272824 0.079993 0.014000 
0.126948 0.013279 -0.002033 
-0.109448 -0.218875 0.217475 
0.048705 -0.405873 0.277557 
-0.132237 -0.018888 0.123598 
-0.050750 0.372813 -0.016924 
-0.001647 -0.355814 0.378990 
0.062593 0.124876 -0.070594 
-0.050958 0.069014 0.240308 
-0.144947 -0.095205 -0.040784 
-0.019968 0.088807 0.242019 
0.034780 -0.096404 -0.017583 
0.025592 -0.019004 0.222765 
0.317419 0.233906 -0.249894 
0.076142 -0.218565 0.063439 
-0.045155 0.262344 0.248838 
-0.123253 -0.206412 -0.183816 
-0.223894 0.175107 -0.061129 
0.035386 0.289461 0.241244 
-0.366766 0.138287 -0.087679 
0.257791 0.050837 -0.065413 
-0.251173 -0.074331 -0.256853 
0.323782 0.238589 -0.143313 
-0.042766 -0.145442 0.174772 
-0.026981 0.262305 -0.200824 
0.116809 0.264515 -0.049478 
-0.152771 -0.182948 -0.072706 
0.324492 0.173531 -0.043414 
-0.007055 0.135032 -0.211876 
-0.316412 0.097949 -0.203451 
0.051696 -0.097007 0.187836 
0.113462 -0.302085 0.140946 
-0.342988 0.059732 -0.185815 
-0.071653 0.194993 -0.144442 
-0.199816 -0.343703 -0.351648 
-0.120338 0.320169 -0.160298 
0.172693 0.144624 -0.038970 
-0.073415 -0.212991 -0.324143 
-0.123615 -0.081139 -0.046376 
0.158300 0.057153 -0.010531 
0.168193 -0.295459 0.235056 
-0.044275 -0.051100 0.209045 
0.327293 0.301777 -0.266684 
0.046107 -0.207663 0.057859 
0.013212 -0.537705 0.329468 
-0.218534 -0.251893 -0.370077 
-0.077703 0.317490 -0.105002 
0.141352 -0.560236 0.362015 
0.259016 0.126239 0.076242 
0.308995 0.247668 -0.230606 
0.312673 0.078329 0.030495 
-0.138957 -0.214003 0.003568 
-0.336804 0.078757 -0.201894 
0.382495 0.154060 -0.188510 
-0.132185 -0.198081 -0.102468 
0.066328 -0.508207 0.447682 
0.092915 0.406478 -0.172442 
-0.155909 -0.371652 -0.319749 
-0.036585 0.107107 0.251000 
-0.114460 -0.164492 -0.247980 
0.058752 0.362228 -0.126272 
-0.001591 -0.509593 0.344634 
-0.125345 -0.101955 -0.106394 
0.104845 -0.021480 0.019634 
0.164341 0.266507 0.159294 
-0.051560 0.349140 0.177377 
0.054802 -0.211816 0.063582 
-0.152385 -0.089184 0.000769 
-0.365757 0.029938 -0.095044 
0.298616 0.088593 -0.168203 
-0.008789 -0.401809 0.409939 
-0.007322 0.239261 -0.218964 
0.093422 0.318947 0.197481 
0.049072 -0.441777 0.450067 
-0.083283 -0.171289 0.124525 
0.284809 0.041266 -0.052754 
-0.139632 0.193043 -0.067776 
-0.333121 0.154861 -0.065168 
-0.285449 0.156490 0.040333 
0.117428 0.289016 -0.035000 
0.062308 -0.084967 0.184469 
-0.118333 -0.101758 -0.119326 
0.172568 0.247094 0.022577 
0.086323 -0.299948 0.149106 
-0.174212 0.153683 -0.044060 
0.100251 -0.383213 0.410530 
-0.125222 -0.245537 0.232585 
-0.041967 0.225221 -0.209435 
0.044618 -0.215257 0.226577 
-0.328786 0.135884 -0.035514 
-0.008936 -0.470665 0.374301 
-0.006432 -0.139670 -0.024681 
0.025672 -0.241160 0.154496 
0.401235 0.148862 -0.151707 
-0.244737 0.069756 -0.048955 
0.352348 0.176680 -0.251188 
-0.086277 0.284686 -0.086366 
-0.118841 -0.082682 -0.063553 
0.339265 0.158518 -0.035567 
0.306932 0.148175 -0.203727 
0.072762 0.401592 -0.195529 
-0.035067 0.296517 0.233334 
-0.052374 0.369466 -0.025067 
0.156299 0.227300 0.200112 
0.097314 0.234961 0.243224 
0.105977 0.015720 -0.038092 
-0.272643 0.118190 -0.180220 
-0.307802 0.055674 -0.038572 
-0.139235 -0.233435 -0.440683 
-0.005317 0.138844 -0.256224 
-0.161270 -0.202581 -0.456772 
-0.080670 -0.278893 -0.337709 
-0.199355 0.195396 0.090333 
-0.031532 -0.225303 -0.024559 
0.081566 -0.261726 0.284470 
-0.062797 0.176589 0.258212 
0.082316 0.210115 -0.096992 
0.133012 0.197202 0.230863 
0.158551 0.073382 -0.024918 
0.033983 0.217735 0.267179 
-0.251767 -0.076153 -0.247967 
-0.242343 0.138376 -0.119873 
-0.301736 0.081091 -0.006207 
0.198348 0.070672 0.104121 
0.104381 0.219867 0.248037 
0.298804 0.117287 -0.183844 
-0.325308 0.001098 -0.228728 
-0.166411 -0.153741 0.031131 
-0.129439 0.280243 0.177726 
-0.116455 0.264611 0.207988 
0.047058 -0.553474 0.309174 
0.103136 -0.276871 0.298203 
0.000502 -0.170259 -0.059309 
0.356579 0.239207 -0.150018 
0.079384 -0.515706 0.333360 
0.313899 0.076960 0.009765 
-0.118745 -0.025913 0.031884 
0.304337 0.157392 -0.037216 
-0.037013 -0.228552 0.175480 
-0.145607 -0.064988 0.072855 
-0.172746 -0.230056 -0.335181 
-0.339216 0.138771 -0.051357 
0.168924 0.199737 -0.043901 
0.103061 -0.083569 0.150025 
-0.264595 -0.000371 -0.233851 
0.070270 -0.451060 0.372017 
-0.277528 0.114327 0.044868 
-0.034811 -0.187911 0.094022 
0.097312 -0.301750 0.141872 
-0.059086 0.309672 -0.175132 
-0.069492 0.066377 0.233960 
0.385324 0.187470 -0.063792 
0.082144 -0.125310 0.191757 
0.099000 0.356554 0.081494 
-0.100466 0.332005 0.030453 
0.248671 0.153572 -0.008893 
-0.146008 -0.088722 0.093264 
0.165810 0.260445 0.050765 
-0.055370 0.286720 -0.170258 
-0.106580 0.143158 0.239577 
-0.093963 -0.091316 -0.133897 
-0.262328 0.094146 -0.269532 
0.180727 -0.230806 0.225671 
0.070139 -0.382459 0.438529 
-0.084003 -0.222825 0.156982 
-0.317247 0.066226 -0.250450 
-0.105892 -0.212832 -0.339801 
-0.273985 -0.000428 -0.255668 
-0.192031 0.140991 0.102517 
-0.064356 -0.220119 0.048810 
-0.104983 -0.080126 0.171760 
0.318782 0.256193 -0.298159 
0.061330 0.127969 0.260198 
0.020499 0.140387 -0.092697 
0.100055 -0.128550 0.200581 
-0.110428 -0.068585 -0.011314 
-0.140938 0.060289 0.185462 
-0.025261 0.144843 -0.191170 
0.156925 0.161481 -0.062880 
-0.160061 -0.281749 -0.281310 
0.126886 0.198343 -0.076330 
-0.268940 0.181508 -0.058709 
-0.247498 -0.150262 -0.409852 
-0.122680 -0.002966 0.166193 
-0.099091 -0.071816 -0.033349 
-0.136434 -0.206503 -0.394501 
-0.341238 0.075981 -0.037791 
-0.269334 -0.005878 -0.249600 
0.019004 -0.498267 0.314663 
-0.162859 -0.335036 -0.369347 
0.084991 0.298732 -0.127477 
0.011355 -0.316718 0.291211 
-0.038425 -0.192637 0.081566 
-0.059024 0.370865 0.030978 
0.166925 -0.206620 0.226866 
0.057997 0.161210 -0.092059 
0.096820 0.273227 -0.103787 
-0.126706 -0.099284 -0.092396 
-0.275686 0.138776 0.056049 
-0.067516 -0.267101 -0.333853 
-0.131453 -0.225911 -0.363206 
-0.007989 -0.200526 0.087057 
0.188388 0.239722 0.098857 
0.041159 0.368926 0.143613 
-0.184143 -0.163564 -0.434540 
-0.300237 0.072958 -0.020771 
0.125825 -0.357502 0.370207 
-0.216727 -0.265999 -0.371585 
-0.011517 -0.134813 -0.018867 
0.372748 0.146345 -0.033065 
-0.123595 0.088991 0.211618 
0.315711 0.256719 -0.155606 
-0.239551 0.130643 -0.120015 
0.397385 0.115917 -0.129539 
0.082357 -0.305384 0.380069 
0.187743 0.142897 0.149359 
-0.240560 0.100040 -0.104711 
-0.147407 -0.312482 -0.394993 
0.142706 -0.547488 0.367707 
-0.053457 -0.003871 -0.029692 
-0.252030 0.061701 -0.134505 
0.180006 0.097237 0.136598 
0.378423 0.244822 -0.217657 
0.094383 -0.192442 0.247291 
-0.131837 -0.004247 0.143366 
0.054126 -0.004738 0.210537 
-0.208092 -0.175388 -0.446891 
-0.247809 -0.146925 -0.418104 
-0.010749 -0.108319 0.198545 
0.000025 0.267798 -0.201022 
-0.288009 0.003032 -0.143385 
-0.080161 0.127989 0.249247 
0.278676 0.091389 -0.150334 
0.188037 -0.277413 0.195431 
-0.076792 -0.061160 -0.008768 
0.035936 -0.257650 0.195642 
-0.141914 -0.139276 -0.112123 
0.249249 0.039354 0.042664 
-0.143961 -0.283180 -0.411338 
0.000868 0.133376 0.262052 
-0.273086 -0.016062 -0.182892 
-0.078269 0.307340 -0.153859 
0.144751 -0.125765 0.169149 
0.151759 -0.182508 0.086574 
-0.124358 -0.244460 0.223519 
0.037567 -0.536651 0.283876 
-0.334249 0.012349 -0.208607 
0.053281 -0.176828 0.221713 
0.064666 -0.403926 0.273687 
-0.084640 0.310046 -0.189040 
-0.160893 -0.209056 -0.366036 
0.021866 0.189063 -0.268863 
-0.008126 0.111709 0.255693 
-0.016914 -0.261177 -0.242395 
0.039259 0.071021 0.244117 
-0.287193 0.041684 -0.055646 
-0.086137 -0.100995 -0.190926 
0.068736 -0.458391 0.375374 
0.178610 -0.283332 0.217331 
0.072177 0.170589 0.264210 
0.031896 0.383057 0.020604 
-0.123907 -0.158930 0.103095 
-0.276622 0.068661 -0.258841 
-0.243826 0.149459 -0.095533 
0.230939 0.172961 0.033283 
-0.110856 -0.219842 0.033114 
-0.050442 -0.084167 -0.110492 
-0.024075 0.381030 0.002848 
0.265442 0.185342 -0.101096 
0.070861 0.342562 -0.112101 
-0.188726 0.179162 0.151179 
-0.036357 0.174605 -0.176017 
-0.096616 0.206796 0.242342 
-0.004356 0.357333 0.178062 
0.070252 0.371882 -0.203909 
0.093722 0.366345 -0.163819 
-0.079048 -0.268266 -0.343338 
-0.017227 -0.198454 -0.092586 
0.032188 0.000702 -0.050071 
-0.268597 0.188244 0.042317 
0.297027 0.290366 -0.186139 
0.025602 -0.540875 0.309451 
-0.046783 -0.083370 -0.102500 
-0.035616 0.031445 0.228215 
-0.059682 0.240101 0.249228 
0.125581 -0.524270 0.382246 
-0.139324 -0.085138 -0.025892 
-0.088847 -0.238002 -0.008122 
0.063330 0.330333 -0.058620 
0.169093 0.105244 0.173168 
-0.040293 -0.159990 -0.274873 
-0.103240 -0.314719 -0.320150 
-0.249382 -0.207503 -0.403770 
-0.095588 -0.129486 -0.239679 
-0.200208 -0.266148 -0.341669 
-0.019026 -0.106947 -0.111948 
-0.213276 0.189173 -0.043417 
0.179789 0.118104 0.156374 
-0.257288 0.064956 -0.032395 
0.327711 0.262633 -0.308196 
-0.117783 0.247509 0.215503 
-0.115800 -0.261854 -0.382579 
-0.313004 0.166007 -0.085795 
-0.277012 0.087304 -0.242199 
-0.020466 0.184649 -0.240530 
-0.082387 0.305276 -0.146641 
0.141420 -0.186411 0.237344 
0.095824 0.283045 -0.099319 
-0.207427 -0.134968 -0.461552 
-0.005878 0.199645 -0.239675 
0.092370 -0.158568 0.039985 
0.166871 -0.310589 0.190222 
0.028946 -0.147484 -0.006762 
0.393588 0.102891 -0.119622 
-0.098893 -0.152067 0.132000 
0.141482 0.078641 0.201215 
0.063538 0.358310 -0.208863 
0.150625 -0.281098 0.253374 
0.275768 0.321081 -0.289494 
-0.109434 -0.279333 -0.371397 
0.365067 0.221024 -0.148144 
-0.154096 0.056444 0.131047 
-0.069884 0.292004 -0.161515 
0.180674 0.124418 0.157869 
-0.110992 -0.228364 -0.176419 
-0.035511 0.385824 0.066665 
-0.028140 -0.219364 0.163712 
-0.103213 -0.078665 -0.085421 
0.364138 0.171937 -0.238852 
0.046595 -0.285059 0.283041 
-0.010225 -0.188055 -0.041471 
-0.157071 -0.163888 -0.078233 
-0.253175 0.133896 0.076324 
-0.024898 -0.209990 -0.008293 
-0.183555 0.262960 0.032705 
-0.157138 0.200454 -0.056680 
0.115973 -0.083548 0.095828 
-0.073121 -0.085515 -0.188244 
0.299315 0.297663 -0.276045 
0.352078 0.283811 -0.200339 
-0.224198 -0.168104 -0.429833 
-0.084397 -0.200256 0.175918 
0.148879 -0.349855 0.259118 
-0.148078 -0.170746 -0.459787 
0.042702 0.178041 -0.279331 
-0.132434 0.008165 0.062034 
-0.131324 -0.014976 0.064859 
0.159164 0.098815 0.191623 
-0.224126 0.214572 0.029138 
0.087344 0.361516 0.103586 
0.102364 0.346458 -0.152002 
-0.090283 -0.239329 -0.030134 
-0.091765 -0.214490 -0.130822 
0.126513 -0.387801 0.300635 
0.289630 0.047904 -0.079491 
0.136314 -0.005089 0.051723 
-0.266729 0.161996 -0.072370 
-0.102723 -0.305711 -0.335415 
0.407815 0.161279 -0.127270 
-0.281047 0.060931 -0.254408 
-0.007009 -0.423843 0.386927 
0.111332 -0.287030 0.121589 
0.181212 0.233524 0.028174 
-0.218557 -0.250836 -0.408013 
0.067222 -0.014469 -0.023047 
-0.028256 0.152279 -0.173921 
-0.235756 0.111775 0.076579 
0.070735 -0.418368 0.307616 
-0.162806 -0.180874 0.012002 
-0.123525 -0.215238 -0.083268 
0.076889 -0.019725 -0.013787 
-0.068772 -0.237744 0.000161 
-0.046001 -0.223308 0.144197 
-0.226344 -0.117937 -0.463200 
-0.178979 0.097966 0.090666 
0.219974 0.126044 -0.045648 
-0.257759 0.031019 -0.106741 
-0.161596 -0.104741 0.015989 
0.160373 0.135103 -0.047742 
-0.204578 0.209080 0.068305 
0.179157 -0.207728 0.126400 
0.329989 0.286508 -0.262063 
-0.070567 -0.122661 -0.246512 
0.026618 -0.497550 0.464855 
-0.074228 0.339880 -0.115115 
-0.172772 0.082736 0.024798 
0.240881 0.102436 0.097852 
-0.251799 0.121409 -0.165957 
-0.123512 -0.079653 0.147888 
0.058161 -0.106543 0.007479 
-0.234668 -0.240423 -0.407624 
0.031824 -0.419025 0.453253 
0.047211 -0.395670 0.451761 
-0.267954 0.144369 0.062854 
0.098599 -0.102677 0.041028 
0.156651 -0.353727 0.231880 
-0.021566 0.351730 -0.081421 
-0.137011 -0.058677 0.051047 
0.122771 -0.331644 0.181460 
0.073395 -0.468167 0.377217 
-0.159383 0.289062 0.082013 
-0.004046 -0.206973 -0.241295 
-0.070550 0.137477 0.255504 
-0.086179 -0.064946 0.187576 
-0.270401 -0.076685 -0.248054 
-0.014853 -0.037671 -0.037496 
-0.231221 0.160909 0.084836 
0.045723 -0.280203 0.217378 
0.035866 0.335726 0.203576 
-0.267927 0.072547 -0.217231 
-0.244728 0.080934 -0.099615 
-0.028325 0.031272 -0.069964 
0.338505 0.231098 -0.322346 
-0.254788 0.086211 0.033372 
-0.242593 0.014999 -0.287869 
-0.037213 -0.473635 0.431677 
-0.114534 0.066224 0.212858 
-0.050516 -0.233368 -0.047293 
0.033916 0.026912 -0.066469 
0.330888 0.283725 -0.294814 
-0.334399 0.054654 -0.227234 
0.019914 0.347900 -0.085375 
0.046101 -0.334636 0.407660 
0.013754 -0.190808 0.040895 
0.013772 -0.213630 0.131887 
-0.084977 -0.259457 -0.182837 
-0.029188 -0.099695 -0.201333 
0.143070 0.059965 0.192834 
-0.112409 -0.074687 -0.046419 
-0.053534 -0.188287 0.115102 
0.060107 0.335908 -0.099052 
-0.018177 0.027302 -0.063994 
0.090487 -0.276877 0.113865 
0.180979 -0.255520 0.143867 
-0.035245 0.019106 -0.060171 
0.010194 -0.485467 0.479400 
-0.041676 0.077870 -0.081969 
-0.034816 0.353600 -0.061417 
0.185814 0.204959 0.012909 
0.145126 0.277033 -0.003920 
0.044254 -0.282531 0.246753 
-0.046640 0.351228 -0.060832 
-0.006762 0.149570 -0.103148 
-0.091905 0.359377 -0.163037 
-0.087476 -0.241610 -0.168121 
-0.159594 0.282498 0.049039 
-0.092287 0.174952 0.248565 
0.069181 0.367633 -0.185925 
0.217921 0.067703 0.095684 
-0.032365 -0.167903 0.177827 
-0.180826 0.265511 0.044668 
-0.134521 0.299597 0.048500 
-0.140839 -0.061043 0.060383 
-0.123823 0.033297 0.000845 
-0.062246 0.187219 -0.159198 
0.038140 -0.079587 -0.016641 
0.058288 0.065959 -0.078057 
0.289940 0.311296 -0.270870 
0.043109 -0.120544 -0.006343 
0.020259 0.316583 -0.154656 
0.320412 0.268087 -0.316627 
-0.189265 0.242451 0.105247 
0.097767 -0.423743 0.359758 
0.324971 0.234799 -0.124893 
0.030308 -0.130979 -0.008817 
-0.133781 0.329677 -0.150837 
0.091418 0.402112 -0.209742 
0.136949 0.237521 -0.051465 
-0.195304 -0.173044 -0.404890 
-0.113725 -0.273202 0.221576 
0.050262 0.366623 -0.042408 
0.005279 0.034954 0.234626 
-0.042740 0.025482 -0.066434 
0.002688 0.306520 -0.172633 
0.028781 0.117987 -0.075924 
0.277801 0.142461 0.002982 
-0.178056 -0.347800 -0.310511 
-0.265483 0.004790 -0.208672 
-0.066856 0.368477 0.107277 
0.001906 -0.087315 0.206594 
-0.177260 0.086220 -0.000003 
-0.323948 0.159724 -0.110713 
0.179333 0.093656 -0.037179 
0.067302 0.172567 -0.194001 
-0.020410 -0.105182 -0.066576 
0.065877 0.377754 -0.206538 
0.203790 0.189963 0.103356 
0.364701 0.164509 -0.210031 
-0.044796 0.330711 -0.141113 
-0.245083 -0.154786 -0.423735 
-0.082041 0.271398 -0.124138 
-0.061229 -0.084643 -0.129265 
0.316937 0.279571 -0.285581 
-0.033514 -0.050817 -0.023196 
0.141574 -0.323631 0.177033 
0.050522 0.132692 -0.174179 
-0.305556 0.083585 0.005968 
-0.068016 0.315383 -0.079972 
0.083498 0.242959 -0.166661 
0.015666 0.339545 0.204879 
-0.012006 -0.187014 -0.251798 
-0.343290 0.147395 -0.120911 
-0.163923 0.239686 0.169687 
-0.296051 -0.050554 -0.233708 
-0.041269 0.232701 -0.214450 
-0.016173 0.152750 -0.099183 
0.137954 -0.301999 0.141826 
-0.074785 0.188912 -0.084799 
-0.256424 -0.149771 -0.413863 
-0.080618 0.278415 -0.129736 
-0.150792 0.088466 0.182404 
0.058756 -0.073002 -0.005995 
-0.249575 0.010862 -0.292238 
0.048268 -0.110469 0.193218 
0.183623 -0.194357 0.190805 
0.102116 -0.091638 0.045497 
0.121602 -0.188379 0.067801 
0.300569 0.261927 -0.204520 
0.269884 0.161951 -0.113290 
-0.064830 -0.220079 0.225704 
-0.349889 0.104465 -0.173234 
0.048741 0.343504 -0.198212 
-0.281435 0.093473 -0.246615 
0.177234 0.040801 0.040375 
0.038723 -0.429884 0.323314 
0.029764 -0.446210 0.359816 
-0.033227 -0.218137 -0.161978 
-0.165654 -0.237174 -0.314381 
0.051899 0.192194 -0.242388 
-0.123612 0.046554 -0.014649 
-0.110165 -0.036636 0.021621 
0.297715 0.175360 -0.052112 
-0.273652 0.177859 0.044430 
-0.100613 0.139534 -0.069326 
-0.073556 0.348234 -0.166267 
-0.070317 -0.098344 -0.219737 
-0.304566 0.153448 -0.134596 
-0.256796 -0.055800 -0.247333 
-0.131557 0.049280 -0.004798 
0.127999 -0.149684 0.072521 
0.322882 0.312630 -0.252223 
-0.174321 0.178843 -0.043295 
0.358877 0.265545 -0.266206 
-0.254572 0.046114 -0.088014 
0.217523 0.035583 -0.016947 
-0.151844 -0.232601 -0.448471 
0.085699 -0.531956 0.427428 
0.209894 0.184572 0.084886 
-0.090235 0.224864 -0.117003 
-0.082380 -0.201628 0.204549 
0.179352 0.253708 0.095412 
0.044573 0.227599 0.262519 
0.087446 -0.437754 0.365105 
-0.133706 -0.193546 -0.419456 
0.319810 0.255209 -0.278681 
0.331653 0.280102 -0.302782 
0.133553 0.057173 0.201611 
0.369002 0.208585 -0.285568 
-0.156996 0.279251 0.033034 
0.152685 -0.140715 0.108300 
0.075210 0.193368 -0.112478 
0.064329 -0.266214 0.115053 
0.167168 0.096824 0.173642 
0.089625 -0.042655 0.018741 
0.123449 -0.183226 0.240694 
0.034942 -0.536991 0.354487 
0.010148 -0.154502 -0.011185 
0.186011 0.241853 0.132985 
-0.198402 0.221628 0.053998 
0.349919 0.267143 -0.286503 
0.012410 -0.521517 0.315740 
-0.091516 0.081115 0.227712 
0.217365 0.038135 0.062985 
-0.018814 -0.473461 0.472354 
-0.140225 0.114593 -0.048893 
-0.108176 0.224572 0.233179 
-0.153253 -0.198816 0.011232 
-0.210436 0.210521 -0.004533 
-0.278693 0.014081 -0.113225 
0.041625 0.142576 -0.224318 
0.128498 0.124401 -0.060471 
0.115592 -0.394693 0.353170 
-0.250429 0.185053 -0.056150 
-0.109067 -0.132582 0.131650 
0.130440 0.296630 0.179925 
0.259158 0.054261 0.057674 
-0.014402 0.105483 -0.076945 
0.297304 0.262791 -0.190500 
-0.099536 -0.143931 -0.261143 
-0.071295 -0.249240 0.214619 
0.139953 -0.553645 0.384524 
0.092412 -0.432061 0.364936 
0.381852 0.229140 -0.189585 
0.189764 0.240185 0.085616 
-0.285036 0.109046 0.038728 
-0.375828 0.069074 -0.143391 
-0.114831 -0.201060 -0.128043 
-0.096599 -0.123214 -0.208664 
0.135147 -0.265212 0.103320 
0.060793 -0.457170 0.367484 
-0.195324 0.193252 0.119113 
-0.353146 0.062803 -0.047343 
0.343100 0.146751 -0.029212 
0.124746 -0.112183 0.076927 
-0.268893 0.105053 -0.276026 
-0.075166 0.207498 -0.149358 
-0.348298 0.083377 -0.177642 
-0.103389 -0.235069 -0.017630 
0.115086 0.255615 -0.077478 
0.010599 0.351446 -0.071251 
-0.154146 -0.093946 0.058442 
0.065154 -0.389255 0.254672 
-0.043109 -0.206918 0.058621 
-0.144149 -0.103054 0.095508 
0.054033 -0.564778 0.287157 
-0.242953 0.091368 -0.108238 
0.031498 0.081958 0.248394 
-0.305273 0.005137 -0.148728 
0.320922 0.266486 -0.269903 
-0.066156 0.174437 -0.079746 
0.099173 -0.486503 0.389124 
-0.197113 -0.257461 -0.341021 
-0.026554 -0.025192 0.208803 
0.010351 0.146735 -0.282997 
-0.111246 -0.196345 0.080359 
-0.072657 0.351818 -0.028716 
0.192110 -0.235567 0.188409 
0.034897 -0.313037 0.256935 
0.028532 -0.329621 0.393831 
0.136485 0.303771 0.048121 
0.001616 -0.522900 0.337183 
0.027950 -0.236124 0.138371 
-0.169151 -0.270295 -0.416617 
-0.047678 -0.179771 0.187513 
-0.025467 -0.200056 0.020501 
-0.114886 -0.225401 0.229010 
-0.178865 -0.165772 -0.459737 
0.157035 0.259080 -0.002322 
0.126132 -0.001719 0.012317 
0.049702 0.289363 0.239309 
0.135967 0.242236 0.209067 
-0.312988 -0.040055 -0.218754 
0.071985 -0.059657 0.014334 
0.375104 0.228748 -0.268021 
0.090134 -0.480603 0.392796 
0.309881 0.178168 -0.191229 
0.189240 -0.197895 0.161229 
-0.111265 0.297727 0.183793 
-0.129624 -0.088770 -0.055894 
0.114029 -0.052836 0.079394 
0.082852 0.292484 -0.133866 
-0.078985 -0.134743 -0.260954 
-0.210292 0.084227 0.053587 
0.260408 0.165215 -0.101134 
-0.350169 0.021873 -0.123306 
0.045464 0.273857 0.252300 
-0.186682 -0.290477 -0.393828 
0.311569 0.068524 0.011440 
0.132451 -0.379831 0.319177 
0.059231 0.324794 0.207612 
0.013205 0.091947 -0.068442 
-0.158894 0.080245 0.154582 
0.232671 0.143538 -0.033371 
0.194284 0.149035 0.134310 
0.035251 -0.459149 0.467459 
0.029156 -0.435738 0.339649 
-0.014514 0.268452 -0.199867 
0.296490 0.329702 -0.225918 
0.001668 -0.402485 0.433251 
-0.022202 -0.105547 -0.037096 
0.242898 0.133101 0.092203 
0.403257 0.132152 -0.141434 
-0.164921 -0.120179 0.028588 
-0.153762 -0.310277 -0.397423 
-0.110181 -0.318491 -0.323989 
-0.135404 -0.314961 -0.287214 
0.007859 0.338345 0.207147 
-0.031612 -0.094360 -0.093245 
-0.002242 0.131205 -0.202181 
0.143131 -0.143939 0.206305 
0.149721 0.277456 0.035837 
-0.156918 -0.370266 -0.339967 
0.165275 -0.196082 0.105175 
-0.071653 0.098583 -0.081740 
-0.279583 0.018498 -0.285163 
-0.174514 0.092921 0.136796 
0.048151 -0.267676 0.236561 
0.332959 0.244252 -0.316061 
0.311623 0.173103 -0.197584 
0.107075 0.331428 0.020685 
0.120711 -0.049166 0.120052 
-0.111515 -0.047300 0.020851 
0.121379 -0.557409 0.368201 
0.198973 0.049712 0.081883 
0.079742 0.357137 0.005925 
-0.297784 0.015991 -0.095727 
-0.017927 0.303177 -0.172425 
-0.094515 -0.078019 0.181292 
0.071811 0.364607 0.128263 
0.122054 0.128530 -0.061693 
0.061256 0.391900 -0.162788 
0.192228 -0.244279 0.208268 
-0.139267 0.333271 -0.204508 
0.066965 0.011434 0.211083 
-0.101516 -0.253417 -0.182378 
-0.030850 0.302560 -0.171219 
0.133092 -0.116403 0.116006 
0.040217 -0.139639 0.000115 
0.038870 -0.475901 0.467141 
-0.075129 0.279439 0.225529 
-0.172117 -0.290906 -0.401551 
-0.099151 -0.125694 -0.219441 
-0.268263 0.002232 -0.201737 
0.346701 0.246192 -0.306719 
-0.197674 -0.242717 -0.347572 
-0.024987 -0.088061 -0.021332 
0.337459 0.105578 -0.027334 
0.267319 0.152545 -0.063407 
-0.352181 0.042874 -0.163534 
0.044663 0.149570 -0.221348 
-0.203055 -0.252010 -0.350354 
0.152100 0.138445 0.211632 
0.387592 0.211372 -0.251898 
-0.272796 0.132658 -0.171010 
0.113588 -0.403219 0.350789 
0.010655 0.139435 0.267115 
-0.251797 0.152899 -0.111350 
-0.128845 0.087392 -0.050439 
-0.026142 0.207090 -0.210466 
-0.251653 -0.190497 -0.410339 
0.245054 0.034870 0.034932 
0.356676 0.064613 -0.106485 
0.125056 -0.102776 0.086932 
-0.077749 0.361133 0.045129 
0.299329 0.122639 -0.174232 
-0.043229 0.006983 0.218941 
-0.014405 -0.125475 -0.020393 
-0.004494 -0.391275 0.420340 
0.293642 0.118039 -0.160895 
-0.209720 -0.198793 -0.369023 
-0.266110 0.021664 -0.251533 
-0.243870 0.120898 -0.118744 
-0.054296 0.188376 -0.117169 
0.209955 0.148492 -0.032566 
-0.084347 0.348154 0.000488 
-0.050279 0.000903 -0.037442 
-0.226482 -0.208383 -0.423329 
-0.237021 -0.040212 -0.281937 
-0.065440 0.357795 -0.044390 
0.295223 0.219848 -0.152126 
0.373715 0.149197 -0.196105 
-0.212872 -0.298714 -0.380985 
0.262741 0.065911 -0.086274 
0.376801 0.248745 -0.244544 
0.012079 -0.404318 0.304306 
-0.275649 -0.002645 -0.251514 
-0.362921 0.048494 -0.062596 
-0.289559 0.023006 -0.276831 
0.098765 -0.519604 0.368841 
-0.193763 -0.343386 -0.325697 
-0.003731 -0.510806 0.352015 
-0.047234 0.373940 0.031049 
-0.117218 0.198506 0.234403 
0.292518 0.095935 -0.169513 
0.114370 -0.284719 0.299879 
-0.269309 0.009704 -0.254438 
-0.120927 0.308000 -0.005621 
-0.039056 -0.216144 -0.131615 
-0.248654 0.074952 -0.056529 
-0.153183 0.217407 -0.051822 
-0.132855 -0.201083 -0.093591 
0.044945 0.108422 -0.069618 
0.051467 -0.073993 -0.013074 
0.145909 0.132590 -0.051301 
-0.206642 0.180855 -0.050071 
0.094444 0.336080 -0.030396 
0.013427 0.307955 -0.171665 
0.041247 -0.437109 0.452392 
0.004842 0.050262 0.236536 
-0.266997 0.091086 -0.259218 
-0.104949 0.023561 -0.015191 
0.131046 0.006201 0.023264 
-0.161505 -0.173167 0.025114 
0.150716 0.187810 0.213610 
-0.059360 -0.184516 0.107061 
-0.027815 -0.274548 -0.241660 
-0.317519 0.005135 -0.136062 
-0.325073 0.148049 -0.136596 
-0.020755 -0.219211 -0.281849 
-0.079578 0.026198 -0.049886 
0.251537 0.160858 0.013368 
-0.094348 0.337733 0.040057 
0.110137 -0.537216 0.369658 
-0.071191 0.270917 0.231192 
-0.144442 0.280893 -0.021841 
-0.179122 0.161203 0.161161 
-0.144599 -0.099787 -0.051713 
-0.010021 -0.151190 -0.160146 
0.002906 -0.201150 0.065440 
0.128236 0.275832 0.207135 
0.364350 0.071553 -0.111273 
0.278211 0.083276 -0.146121 
0.080381 -0.073443 0.023871 
-0.186765 -0.180822 -0.445097 
0.297533 0.048588 -0.084992 
0.019995 -0.301338 0.316820 
-0.196327 0.232339 0.089998 
-0.325658 0.039159 -0.056210 
-0.166169 0.332327 -0.210502 
0.063268 -0.551146 0.336350 
-0.089973 0.194338 -0.080525 
-0.286425 0.031391 -0.075221 
-0.038981 -0.208824 0.046748 
-0.093524 0.013791 -0.019638 
-0.224473 -0.135712 -0.447215 
0.017628 -0.218857 0.164331 
-0.174891 0.230054 -0.015920 
-0.174891 0.083784 0.010813 
-0.288744 0.102045 -0.188855 
-0.265879 0.040905 -0.196563 
-0.089723 -0.258903 0.230841 
0.058287 -0.283291 0.332877 
-0.060060 -0.077569 -0.076596 
0.091657 -0.482829 0.411292 
0.171735 -0.169388 0.118517 
-0.198106 0.227531 0.047282 
-0.265501 0.040459 -0.206344 
-0.116403 -0.084454 -0.082416 
-0.063490 0.043238 0.221688 
0.117961 -0.385073 0.368838 
-0.015490 -0.133308 -0.199663 
-0.261248 0.062085 -0.168996 
-0.312683 0.163417 -0.064679 
0.022614 0.244294 0.263424 
0.081256 -0.262780 0.099085 
-0.132143 0.015232 0.051013 
-0.381332 0.101904 -0.136287 
0.099320 -0.248170 0.269118 
-0.047871 -0.124898 -0.245003 
-0.224675 0.096947 0.066548 
0.061087 0.298108 0.233465 
0.157527 -0.205502 0.092613 
-0.056275 0.337606 -0.106550 
0.121968 0.306654 0.015823 
0.279218 0.212823 -0.130311 
-0.291947 -0.058463 -0.229760 
0.085412 -0.434916 0.412625 
0.067706 0.174088 -0.231294 
0.343439 0.238422 -0.322418 
0.037857 0.135115 -0.226475 
-0.110160 0.313735 0.165381 
0.027850 0.375964 -0.033524 
-0.039435 -0.259701 -0.302934 
-0.116779 -0.117499 0.133242 
0.371408 0.118610 -0.180860 
-0.226681 0.121031 -0.072609 
0.080686 0.199491 -0.160656 
-0.302326 0.102783 0.022170 
-0.228148 -0.262752 -0.392388 
-0.301536 0.139987 0.027284 
0.149712 0.045996 -0.017443 
-0.008670 -0.147366 -0.015950 
-0.108024 -0.197452 -0.170120 
0.169597 0.254554 0.030557 
-0.146856 -0.203586 -0.051824 
-0.059541 -0.001229 -0.032615 
-0.133768 -0.192741 -0.431706 
0.083053 -0.342904 0.212412 
0.120333 0.320287 0.166378 
-0.183771 0.254415 0.103097 
-0.027930 -0.222578 -0.033892 
-0.139683 -0.051598 0.076442 
-0.183193 -0.169624 -0.403961 
-0.154437 0.289874 0.059437 
-0.034570 -0.461366 0.426333 
0.041476 0.006612 0.218295 
-0.114289 0.314117 -0.007505 
0.209838 0.164671 -0.012531 
0.246239 0.056458 -0.061633 
0.069109 -0.186241 0.236076 
0.286471 0.328513 -0.240624 
0.037501 -0.486604 0.321469 
0.207928 0.083808 0.108063 
-0.166844 -0.173156 -0.014478 
0.105263 0.250643 -0.097581 
-0.047109 -0.199190 0.073864 
-0.166159 0.261907 -0.014691 
-0.129214 -0.005767 0.060687 
-0.197949 0.223628 0.084783 
-0.256202 0.123031 0.068739 
-0.073588 0.310353 -0.098089 
-0.046997 0.338788 -0.111693 
0.098593 -0.131954 0.034948 
-0.061580 -0.079272 -0.024736 
0.311684 0.103566 0.025945 
-0.210824 0.202448 0.073708 
0.123603 0.326963 0.131251 
-0.092719 -0.218358 -0.161963 
0.000188 -0.159722 -0.007196 
-0.147512 0.076635 -0.005050 
0.047501 0.354674 -0.126358 
0.093805 -0.259306 0.282699 
0.307342 0.230841 -0.193491 
-0.125346 -0.327642 -0.312861 
0.314300 0.317487 -0.264452 
-0.128209 0.172946 -0.070582 
0.108953 -0.069052 0.065210 
0.262147 0.153152 0.041227 
-0.021643 0.388795 0.068112 
-0.013175 0.119591 0.257212 
0.045005 0.157978 0.265077 
-0.163401 -0.163428 0.039701 
0.363513 0.192579 -0.068252 
-0.094606 0.355391 0.095403 
0.123363 -0.318154 0.163099 
-0.343084 0.097430 -0.180395 
0.088261 -0.030150 0.181044 
0.096582 -0.549102 0.395960 
-0.002481 0.158126 -0.293628 
0.136502 -0.129097 0.098672 
0.291451 0.160661 -0.147858 
-0.312154 0.004647 -0.152931 
-0.089661 -0.127944 -0.243955 
-0.134080 0.014274 0.068881 
-0.087823 0.293379 -0.119477 
0.051733 0.343372 -0.201208 
0.083235 -0.556439 0.355393 
-0.144877 -0.353795 -0.305503 
-0.276785 0.010754 -0.156363 
-0.094898 -0.263040 0.250750 
-0.287968 0.130562 -0.174760 
-0.389584 0.084191 -0.109778 
-0.150001 -0.249830 -0.439150 
-0.037842 0.040681 -0.075478 
-0.083357 -0.067356 -0.016542 
-0.039851 0.341490 0.189662 
0.003817 0.380042 -0.019534 
-0.364945 0.055373 -0.154971 
-0.049720 0.366960 -0.051861 
-0.058697 0.262284 0.241615 
0.257159 0.126721 -0.072674 
-0.002881 -0.150386 -0.073716 
-0.114911 0.300418 -0.146186 
-0.065490 0.168994 0.257249 
-0.199635 0.085701 -0.036181 
-0.280221 -0.066791 -0.248020 
-0.377914 0.083498 -0.073323 
-0.344887 0.040346 -0.191559 
-0.091857 -0.137896 -0.257769 
0.084264 -0.442079 0.377016 
-0.322855 0.012791 -0.108818 
-0.093510 0.354190 0.113997 
-0.117288 -0.285053 0.227605 
0.148235 -0.196426 0.081270 
-0.085109 -0.094668 0.179600 
0.077286 -0.558203 0.349102 
0.297415 0.302509 -0.227398 
-0.042614 0.211647 -0.206408 
-0.021052 -0.195121 0.015643 
0.045936 0.370512 -0.149698 
-0.129160 0.078893 0.198171 
0.083185 -0.564873 0.334859 
0.135221 0.026978 -0.012176 
-0.146395 -0.214627 -0.238767 
0.024960 0.050789 0.236796 
-0.021151 -0.112522 -0.021995 
0.110787 -0.315849 0.157337 
-0.260527 0.036348 -0.150047 
-0.133728 -0.213197 -0.070817 
0.046704 -0.278269 0.193972 
-0.037700 -0.089374 -0.106301 
0.325417 0.124469 -0.019980 
0.105955 0.344964 0.048458 
-0.083499 0.259033 -0.135509 
0.040295 0.019192 0.223086 
-0.102438 -0.249442 0.257244 
-0.042471 -0.281882 -0.229240 
-0.039816 0.175215 -0.220749 
0.292338 0.034793 0.014856 
0.336743 0.205559 -0.279371 
-0.012610 -0.189445 0.149650 
-0.184177 0.109977 0.097042 
0.337848 0.206674 -0.075353 
0.098342 0.146627 -0.065210 
-0.290147 0.016218 -0.275610 
0.091930 0.093971 0.240422 
0.020492 0.192082 0.271700 
0.103299 -0.125076 0.039869 
-0.113399 -0.243717 0.206999 
0.052829 0.151132 -0.265526 
-0.229982 -0.034105 -0.284285 
0.010934 0.100102 0.253894 
0.283639 0.131957 0.034125 
-0.124356 -0.168961 -0.229808 
0.121634 -0.350605 0.378122 
0.084488 -0.178640 0.240458 
-0.194572 0.195377 0.133117 
0.169751 0.057687 -0.011529 
0.078456 0.281872 0.232493 
0.004582 0.135530 -0.257224 
0.056675 0.205168 -0.219711 
0.284331 0.200645 -0.096673 
0.164071 0.160752 0.199148 
0.187012 0.141172 0.156712 
-0.202833 0.105282 0.081738 
0.295716 0.061022 -0.132993 
-0.136070 -0.085285 0.115416 
0.037696 -0.193273 0.042374 
-0.048550 0.158274 0.263353 
0.015472 -0.492852 0.470084 
0.083092 -0.471102 0.393592 
-0.126297 0.329214 -0.142611 
0.010264 0.134845 -0.084361 
0.169444 0.043595 0.021663 
0.350110 0.107031 -0.186714 
0.060653 0.313508 -0.189379 
0.370990 0.260338 -0.196543 
-0.382416 0.088104 -0.142964 
-0.134054 -0.196999 -0.439379 
-0.038379 -0.087392 -0.042956 
0.099216 0.281215 -0.084726 
0.159009 0.022884 0.114376 
0.012607 0.051179 -0.068108 
-0.123162 -0.050180 0.156577 
0.162102 0.266917 0.043862 
0.082110 0.387731 -0.195784 
0.084108 0.205203 -0.164955 
0.043448 0.004382 -0.042671 
-0.011747 0.128789 -0.168949 
0.286305 0.075202 0.048926 
-0.120707 -0.137257 0.122657 
0.147324 0.307760 0.074101 
0.048174 -0.186120 0.035078 
-0.041700 -0.017249 -0.037310 
-0.049943 0.382075 0.090585 
-0.135331 -0.232718 -0.200764 
-0.227135 -0.197349 -0.426858 
0.070865 0.187501 -0.114872 
-0.073213 0.331179 -0.055675 
-0.157000 0.239437 0.176217 
-0.122676 -0.250136 0.241224 
-0.092777 -0.169947 -0.297590 
-0.150127 0.357274 -0.202129 
0.172311 0.179449 0.189901 
0.087118 0.394145 -0.208389 
-0.266269 0.027312 -0.194347 
0.025312 -0.448253 0.467792 
0.317848 0.055912 -0.042673 
0.144979 -0.361195 0.225292 
0.130516 0.022311 -0.016953 
0.324470 0.221754 -0.253303 
0.005408 -0.385226 0.291913 
0.000897 -0.399037 0.318920 
0.212717 0.171735 0.097989 
-0.212799 -0.281738 -0.395375 
-0.312278 -0.004549 -0.158160 
-0.113540 -0.205334 -0.330512 
0.069418 0.303619 -0.148550 
0.117029 -0.052232 0.125281 
-0.026491 0.147850 -0.086635 
-0.136461 -0.209939 -0.203031 
0.039783 -0.511217 0.310113 
0.014238 0.381523 -0.015099 
0.166560 -0.144282 0.163446 
-0.105787 -0.067130 0.173364 
0.053878 0.177767 -0.271551 
0.152581 -0.296410 0.144205 
-0.058878 0.184478 -0.151971 
-0.032126 0.156756 -0.094199 
0.058524 0.339407 -0.175302 
0.298957 0.209832 -0.159679 
-0.246749 0.104232 0.066896 
-0.069992 -0.000855 -0.024235 
0.062754 -0.257597 0.263124 
-0.110144 -0.164198 -0.270770 
0.325411 0.247693 -0.279136 
-0.076439 0.370260 0.092951 
-0.075419 0.025624 0.207880 
-0.357404 0.110555 -0.162331 
0.394353 0.174748 -0.062561 
-0.002989 0.358513 -0.062550 
0.305064 0.279599 -0.299194 
-0.112435 0.005852 0.020524 
0.026233 -0.240631 0.176281 
-0.139878 0.330709 -0.182028 
-0.018720 -0.118495 -0.164419 
-0.266031 -0.040038 -0.213366 
-0.071448 -0.252223 0.212317 
0.091386 -0.327125 0.395768 
-0.034173 -0.227957 -0.061011 
-0.383190 0.114511 -0.108771 
0.065419 -0.047437 -0.000240 
0.372403 0.171965 -0.224866 
0.067243 -0.145919 0.021838 
0.131304 -0.559007 0.386166 
0.073037 -0.284952 0.341687 
0.036859 0.351416 0.180119 
-0.009811 0.188659 0.271902 
0.061115 0.160863 -0.190095 
0.018499 -0.490243 0.328288 
-0.093491 0.344303 0.141015 
-0.122390 0.356192 -0.149847 
0.133390 -0.160387 0.074355 
-0.146253 0.107350 -0.039156 
-0.055676 -0.002743 0.220116 
-0.146216 -0.190595 -0.083488 
-0.071043 -0.056113 0.196638 
-0.144709 -0.233246 -0.227477 
-0.130215 0.349104 -0.212608 
-0.117428 0.330098 -0.197635 
0.117850 -0.060793 0.119263 
-0.064073 0.008816 0.217820 
0.269507 0.190366 -0.122994 
0.096495 -0.060641 0.041007 
-0.123397 -0.128216 -0.141736 
0.091211 -0.186108 0.050931 
-0.103008 0.009358 0.192188 
0.158855 0.144062 -0.054794 
-0.057467 -0.237649 -0.002684 
-0.029068 -0.212943 -0.073807 
-0.033238 0.340898 -0.115500 
-0.133517 -0.048331 0.048090 
0.381514 0.176528 -0.209086 
-0.022021 -0.026414 -0.046346 
-0.006524 0.143371 -0.272754 
-0.050203 -0.116738 -0.232896 
-0.319630 -0.000141 -0.235871 
-0.189675 0.160057 0.120924 
-0.142013 0.030337 0.115106 
0.082217 0.358778 0.029884 
0.102112 -0.546543 0.374558 
-0.138971 -0.005288 0.097795 
0.340131 0.165996 -0.228423 
-0.209744 0.100354 0.071716 
-0.168424 0.271116 0.118350 
-0.271031 0.004447 -0.245411 
-0.186673 0.237312 0.121400 
0.036490 -0.259882 0.166397 
-0.018944 -0.194632 0.115434 
-0.342010 0.016934 -0.133765 
-0.326676 0.009125 -0.135651 
0.211735 0.055674 0.088386 
0.024292 -0.531861 0.308050 
-0.120058 0.165261 0.232946 
0.137047 -0.371666 0.312395 
0.284203 0.039391 0.025848 
