0.052746 0.166172 -0.155582 
0.052404 -0.310716 -0.067796 
0.010141 -0.014283 0.099648 
-0.081720 0.025940 0.015033 
0.049266 0.076495 -0.022362 
-0.052725 -0.020295 -0.087763 
0.062194 0.224602 -0.064432 
0.054860 -0.245407 0.070986 
-0.013600 -0.219220 0.047996 
-0.082061 0.025940 -0.010676 
0.031460 -0.179734 0.099241 
-0.038399 0.059064 -0.082852 
-0.042935 -0.140001 -0.047493 
0.061171 0.083211 -0.008339 
-0.029291 0.119428 0.199757 
-0.001695 0.000231 0.244553 
0.031494 0.335111 -0.043397 
-0.092499 -0.507479 0.080475 
-0.092499 -0.483173 0.085149 
0.050017 0.067945 0.045417 
0.050017 0.280513 0.078580 
0.051415 0.138338 -0.052680 
0.051415 0.222479 0.082770 
-0.059309 0.173183 -0.074193 
0.014746 0.356203 -0.010676 
0.040943 0.285946 -0.125417 
-0.043584 -0.058274 -0.101951 
-0.024720 0.229276 -0.107037 
-0.024720 0.304066 0.130015 
-0.024720 -0.509506 -0.139542 
-0.024720 0.062056 0.090686 
-0.024720 -0.048851 -0.109540 
-0.024720 0.416252 -0.038936 
-0.024720 -0.163373 0.036192 
-0.024720 -0.013793 -0.103591 
-0.024720 -0.044176 0.106780 
-0.024720 0.030615 -0.098960 
-0.024720 0.068010 0.086814 
-0.024720 -0.485201 0.118260 
-0.024720 -0.093257 0.008808 
-0.024720 -0.471026 -0.122363 
-0.024720 -0.027816 0.231261 
-0.024720 -0.045259 0.244078 
-0.024720 -0.020804 -0.105031 
-0.024720 -0.493001 -0.139815 
-0.024720 -0.485906 -0.087234 
-0.024720 -0.067548 0.003995 
-0.024720 -0.060536 0.003835 
-0.024720 0.007242 0.230993 
-0.024720 -0.479433 -0.130344 
-0.024720 0.014254 0.256522 
-0.024720 0.432612 -0.039141 
-0.024720 0.385868 0.035815 
-0.024720 0.051649 -0.095293 
-0.084448 0.233950 -0.024699 
0.011608 0.098446 -0.179045 
-0.037989 0.312663 0.092161 
0.036065 -0.156738 -0.097173 
0.002534 0.173183 -0.164530 
0.054929 0.225229 -0.145589 
-0.071862 0.044637 0.044861 
-0.057535 0.339357 -0.013117 
-0.072203 0.203567 -0.069908 
0.058783 0.163835 -0.005463 
-0.084073 0.082032 -0.015350 
-0.066950 0.378396 0.019856 
0.058101 -0.035434 -0.048999 
0.015838 -0.305942 0.112874 
-0.041094 0.290043 -0.092478 
0.021432 0.141434 0.181070 
-0.038296 0.322326 -0.039094 
0.012358 0.175283 -0.176933 
0.048345 -0.207780 -0.059757 
0.059875 0.233852 -0.127333 
-0.078445 0.044637 -0.031711 
-0.084380 0.236376 0.051455 
0.031938 -0.095594 -0.021579 
-0.036523 -0.021625 0.266443 
-0.029530 0.338472 0.048437 
-0.045596 0.385868 0.033513 
0.050460 0.124131 -0.157347 
-0.019399 0.117090 0.170052 
-0.044198 -0.072222 0.099719 
0.045923 0.011917 -0.074249 
0.057453 0.264334 -0.017688 
-0.063402 -0.071054 -0.057420 
0.050119 -0.444167 -0.104470 
-0.019740 0.194608 0.169054 
0.007856 0.091753 0.220609 
-0.005755 -0.031167 0.255843 
-0.081549 0.124102 0.012696 
0.040704 0.051659 -0.214022 
0.042103 -0.076897 0.061777 
0.052234 0.154486 -0.164931 
0.052234 0.237456 0.092161 
0.063763 0.207921 -0.038698 
0.006832 -0.193756 0.031549 
0.006832 -0.175059 0.106174 
0.043160 0.292486 0.096842 
0.054690 -0.373461 0.085776 
-0.002241 -0.256742 0.073772 
-0.057774 0.133451 0.066831 
-0.082572 0.039963 0.017370 
-0.014453 0.189623 0.121800 
-0.061253 0.266707 0.092194 
0.070790 0.002568 0.029056 
-0.067529 0.170846 0.068420 
-0.057399 0.114323 -0.073755 
-0.063334 -0.062873 0.052428 
0.028186 0.455740 0.016085 
-0.015476 -0.013761 0.236688 
0.030983 0.303655 0.106306 
0.045309 -0.437320 0.099084 
-0.058081 0.271233 -0.071165 
0.028902 -0.277896 -0.065024 
0.031699 0.273204 0.136887 
0.059295 -0.002106 -0.059548 
0.051961 -0.263872 -0.068472 
0.051961 0.084370 -0.204663 
-0.076228 0.077786 -0.041179 
-0.083903 0.117090 -0.001327 
-0.075170 0.119428 -0.048425 
0.064548 -0.277939 0.094441 
-0.028711 -0.200768 0.054255 
0.029277 -0.509524 -0.094701 
0.040466 0.299031 0.092746 
0.025798 -0.338663 0.060656 
-0.033930 0.317959 0.078506 
-0.073397 0.382706 -0.018011 
-0.080730 0.254920 0.036068 
-0.019604 0.194400 0.104300 
-0.076535 0.002568 -0.024274 
0.020920 0.096056 0.197334 
0.038385 0.069891 -0.194813 
-0.028677 0.079541 0.199614 
-0.001081 -0.438523 -0.108662 
0.065639 0.023603 0.003347 
-0.017489 -0.213864 0.047086 
0.028970 -0.484904 0.113465 
-0.032156 0.014254 0.098908 
-0.048223 0.105078 0.080575 
0.033166 0.145224 -0.078627 
0.043297 -0.392335 -0.115022 
-0.080696 0.378949 0.005422 
-0.063231 0.278357 0.071125 
-0.067768 0.395141 -0.027220 
0.021658 0.348446 -0.005857 
-0.080333 0.084370 -0.034418 
-0.071601 0.458503 -0.010283 
0.043319 -0.440067 -0.114960 
0.035985 0.098223 0.075761 
0.041579 0.092818 -0.074011 
0.026911 0.103067 0.085396 
0.044376 -0.114292 -0.050408 
-0.059014 0.282366 -0.051744 
0.003511 0.165521 -0.135250 
-0.027223 0.168406 0.093642 
0.010504 -0.289581 0.109728 
0.046832 -0.189082 0.085528 
-0.040492 0.219927 0.124881 
0.064297 -0.488732 -0.087578 
-0.039093 0.329448 0.043981 
0.058362 0.180388 -0.052840 
-0.071567 0.058661 0.043244 
0.033222 -0.163373 0.033154 
0.059419 0.117305 0.028722 
0.059419 0.091909 0.012696 
0.059419 0.090908 -0.013013 
0.059419 0.118530 -0.045734 
0.059419 0.159174 -0.043545 
-0.010440 -0.453551 -0.113513 
0.017156 0.080011 0.189883 
-0.041174 0.004905 0.241741 
-0.082039 0.175520 0.008021 
0.022750 0.427762 -0.023061 
0.022750 -0.100268 0.099723 
0.040288 0.292831 0.103821 
0.059078 0.250473 -0.122645 
-0.069111 -0.027816 0.029056 
0.035678 -0.100214 -0.085238 
-0.034181 -0.109444 0.103908 
0.054541 0.222147 0.010779 
-0.012521 0.240962 -0.139499 
0.015075 0.061032 -0.091554 
0.062932 0.245636 -0.083129 
-0.049327 0.271195 -0.089851 
-0.014260 -0.147162 0.107578 
-0.085859 0.240626 0.036068 
0.021385 0.084125 -0.181027 
0.043046 -0.142338 -0.045734 
0.003580 0.371811 0.002930 
-0.048815 -0.130652 0.087198 
0.061568 0.042300 -0.029374 
-0.084086 0.198892 -0.038722 
-0.049156 0.320688 -0.019881 
-0.082687 0.243299 -0.013013 
0.057031 0.215080 -0.140115 
0.014788 -0.156436 -0.111831 
-0.008632 0.191881 -0.136885 
-0.085825 0.226939 0.012965 
0.045161 0.092478 -0.067698 
-0.071499 0.240575 0.085208 
0.020021 -0.123641 0.103028 
-0.057172 0.310283 0.008021 
-0.067644 0.423204 0.029229 
0.038543 0.215253 0.117870 
-0.029917 0.039703 0.239874 
0.041340 0.034142 -0.248658 
-0.070782 0.283119 0.008012 
-0.035853 0.486539 -0.003664 
0.009208 -0.203514 0.034961 
-0.076718 0.142799 0.048335 
0.019339 -0.331651 0.112592 
-0.038991 0.291059 0.127623 
0.027730 -0.492917 0.114194 
-0.049463 0.264334 0.120003 
-0.080197 0.110079 -0.039164 
0.043455 0.099205 -0.167530 
-0.067269 0.282583 0.043079 
0.003989 0.161309 -0.158308 
0.059180 0.170846 -0.052770 
0.008184 -0.329314 0.078836 
0.050107 -0.452517 0.096311 
0.058839 0.240962 0.052428 
-0.062016 -0.048879 0.040753 
-0.011361 0.213440 -0.115850 
-0.026029 0.226939 0.151133 
0.045229 0.280248 -0.124999 
0.055019 -0.342999 -0.073576 
0.006820 -0.420464 0.074772 
-0.000514 0.176843 -0.160431 
-0.054648 0.477781 -0.003664 
-0.045915 0.290043 -0.078455 
-0.003993 0.159350 0.192797 
0.014870 0.341657 -0.060566 
-0.040662 0.079073 0.085309 
-0.013067 0.177868 0.179608 
0.058191 0.257323 0.040742 
-0.024937 -0.196228 0.089931 
0.046320 -0.436825 0.079362 
0.021522 0.079839 -0.232804 
0.015587 0.031944 -0.232739 
-0.054273 -0.099213 0.041413 
0.043182 -0.478895 -0.119441 
0.000919 0.058846 -0.096353 
-0.083608 0.173183 0.017370 
-0.031214 -0.163373 0.095148 
-0.080811 0.187225 -0.045726 
0.015245 -0.231151 0.104558 
-0.061948 0.096056 0.070936 
-0.018286 -0.490598 0.071112 
0.044240 0.215128 0.092310 
0.010709 -0.205442 0.104171 
-0.015488 -0.457831 -0.097086 
0.038304 0.229276 0.141242 
0.022238 0.166172 0.089953 
-0.024903 0.192850 0.165129 
0.028890 0.336787 -0.006002 
0.005490 -0.216895 -0.107291 
0.024353 0.163836 -0.083713 
0.059283 0.157085 0.015444 
0.059283 -0.338924 0.073565 
-0.033977 0.030788 0.230168 
0.012482 -0.394723 -0.096782 
-0.048644 0.023603 -0.084974 
-0.039912 -0.510639 0.092161 
0.015280 0.318908 -0.108703 
0.060340 0.161497 -0.037554 
0.035541 -0.114292 0.029750 
-0.083915 0.089044 -0.001327 
0.029606 -0.048851 0.094506 
0.049868 -0.334354 -0.120422 
-0.085655 0.196555 -0.029372 
-0.024528 0.336589 0.056592 
0.050925 0.030615 -0.070052 
0.012858 0.170403 0.178785 
0.040453 0.133451 -0.067828 
-0.046871 0.286661 0.115582 
0.050584 0.195947 -0.118155 
0.059317 -0.243677 -0.096812 
0.038714 -0.053525 -0.078455 
0.032778 0.437286 0.008021 
-0.010884 0.158731 -0.096996 
-0.002151 -0.247512 0.095359 
0.045706 0.227224 0.099531 
-0.047553 -0.118966 -0.096477 
0.057236 0.259660 -0.013013 
-0.046154 -0.472768 0.080333 
-0.075490 0.269230 0.024382 
0.067026 0.189544 -0.018856 
-0.007370 -0.474874 0.113920 
-0.003174 0.135788 0.201495 
0.056213 0.217766 -0.076044 
0.005217 -0.301267 -0.106501 
-0.038445 0.271345 -0.109294 
-0.029713 0.318247 0.101660 
-0.034249 -0.006374 0.261888 
0.054473 0.161135 -0.054831 
-0.082448 0.245636 0.002178 
0.015007 -0.093251 -0.007442 
0.049936 -0.371509 0.075641 
-0.049258 0.315646 -0.026608 
0.059726 0.212915 0.019166 
-0.024801 0.093585 0.183246 
-0.025495 -0.179734 -0.102492 
0.016427 -0.002072 -0.092346 
0.042624 0.122211 -0.076117 
0.049617 -0.184676 -0.066704 
0.026217 0.175399 0.141149 
-0.067042 0.440977 -0.017688 
0.040543 0.280230 -0.129709 
0.058008 0.055371 0.026719 
-0.027917 0.135788 0.190323 
-0.010452 -0.156250 -0.031198 
0.001077 0.091428 0.224032 
0.036007 0.070187 -0.069075 
-0.006257 0.394851 -0.026786 
0.031470 -0.151790 -0.101921 
-0.054455 0.273682 0.103846 
0.050333 0.263962 -0.130210 
-0.026860 -0.469341 0.074892 
-0.034194 0.010050 0.253538 
0.012266 -0.291919 -0.116165 
0.055927 -0.380568 -0.104178 
-0.029998 0.210578 0.152465 
-0.003801 0.169918 0.099489 
0.015063 -0.109754 0.011803 
0.016461 -0.067548 0.006819 
-0.057935 0.063335 0.062324 
0.022055 0.168673 0.169440 
-0.079936 0.035289 -0.026082 
-0.062471 -0.049056 -0.048257 
-0.018809 0.420926 0.048001 
-0.061073 -0.482044 -0.118625 
0.011583 -0.399262 0.104490 
-0.083074 0.207072 -0.043397 
0.050709 -0.242838 -0.068291 
-0.036615 -0.182071 0.057103 
0.038838 -0.367981 0.067929 
-0.038355 -0.142386 -0.101408 
-0.036956 0.037626 -0.091901 
-0.085155 -0.509202 0.077562 
0.051425 0.182532 -0.153245 
-0.060698 0.284456 0.068788 
0.061556 0.042300 0.003347 
-0.030305 -0.203068 -0.076358 
-0.081301 0.082032 0.035673 
-0.055103 -0.510622 0.099172 
-0.055103 0.413914 0.036086 
-0.055103 -0.510674 -0.122862 
-0.055103 0.404565 0.035606 
-0.055103 0.404565 -0.034642 
-0.055103 -0.509833 0.124375 
-0.055103 -0.510720 -0.131042 
-0.055103 -0.507209 -0.145218 
-0.055103 -0.510747 -0.114681 
-0.055103 -0.490580 -0.089711 
-0.083040 0.232782 -0.006002 
-0.048111 0.072680 0.074622 
0.005682 0.099592 0.219223 
0.036075 -0.095594 0.082871 
0.012675 -0.263872 -0.113789 
0.012675 -0.111955 0.105935 
0.012675 0.039963 0.092752 
0.012675 -0.492917 -0.127790 
0.012675 0.191881 -0.099384 
0.012675 0.144569 0.187395 
0.012675 -0.455522 0.064946 
0.012675 -0.502266 -0.127076 
0.012675 -0.151687 0.106680 
0.012675 -0.266209 0.107270 
0.012675 -0.495255 -0.085395 
0.012675 -0.488501 0.071868 
0.012675 -0.228814 0.045196 
0.012675 -0.161036 0.106445 
0.012675 -0.009118 0.096820 
0.012675 -0.200768 -0.038583 
0.012675 -0.048851 -0.104483 
0.012675 0.103067 0.098054 
0.012675 -0.049272 -0.003879 
0.012675 0.187206 -0.117862 
0.012675 0.177857 0.176123 
0.012675 -0.118966 0.106606 
0.012675 0.290043 -0.137747 
0.012675 0.138702 0.192189 
0.012675 0.259660 -0.147220 
0.012675 0.274247 -0.143633 
0.012675 0.030615 0.091744 
0.012675 -0.509476 -0.108838 
0.012675 0.173183 0.096084 
0.012675 -0.474220 -0.079740 
0.012675 -0.446590 0.066143 
0.012675 -0.055862 0.007702 
0.012675 -0.011245 -0.283066 
0.012675 0.210578 0.172293 
0.012675 -0.102606 0.008887 
0.012675 -0.483569 0.114932 
0.012675 0.479893 0.010359 
0.012675 -0.065211 -0.005182 
0.012675 0.056323 0.092498 
0.012675 -0.142338 0.106633 
0.012675 -0.509713 -0.101827 
0.012675 -0.058199 -0.006288 
0.012675 -0.256861 0.059514 
0.012675 0.175811 -0.093324 
0.012675 -0.135326 0.106725 
0.012675 0.016591 -0.239146 
0.012675 0.168509 -0.127714 
0.012675 0.179697 0.098777 
0.012675 0.007242 0.092114 
0.012675 -0.175059 0.105627 
0.012675 0.280694 -0.141481 
0.012675 0.156823 -0.085047 
0.012675 -0.025478 0.101781 
-0.100846 -0.504274 0.082900 
0.055996 -0.280233 0.109573 
0.015131 -0.062873 0.104007 
-0.037263 0.003001 0.254305 
-0.043199 -0.119438 -0.036633 
-0.049134 -0.106306 0.036201 
0.022124 0.323165 0.087432 
0.048321 -0.051121 0.040742 
-0.063802 -0.044176 0.064114 
-0.011407 -0.453185 0.075357 
0.059850 -0.301267 0.108927 
0.059850 0.089932 -0.029415 
0.026319 0.170771 0.148614 
0.021441 0.115364 -0.157768 
-0.004756 0.374182 -0.023510 
0.040305 0.198756 0.089375 
0.015506 -0.214792 -0.111595 
0.037166 0.320278 0.045417 
-0.015228 -0.458016 -0.104572 
0.047297 -0.471883 -0.116624 
-0.005097 0.128860 0.205808 
0.007831 -0.352663 0.099485 
-0.009634 -0.184844 0.102955 
0.045558 -0.120187 -0.057574 
0.007490 -0.366976 0.087527 
-0.066906 0.147474 0.057217 
-0.013113 -0.137433 0.108951 
-0.071443 0.030615 -0.043391 
-0.052579 -0.002106 -0.085460 
-0.057116 0.268798 0.100489 
-0.081915 0.142799 0.017370 
0.012402 0.070590 0.194442 
-0.022528 0.162837 0.094438 
-0.079459 -0.009036 0.022036 
0.035120 -0.384851 -0.078425 
-0.043472 0.156738 0.086709 
0.010321 -0.240282 0.102961 
0.050845 -0.189082 0.072294 
0.050845 -0.186745 -0.073780 
0.028843 0.183495 -0.088409 
-0.048350 0.481836 -0.004562 
0.019770 -0.238113 0.048611 
0.064830 0.124138 0.017237 
0.013835 -0.212458 0.037129 
-0.073489 0.439516 -0.004388 
0.044227 -0.348012 0.111809 
0.036894 0.138335 -0.070405 
0.006160 -0.182328 0.029025 
-0.047974 -0.142917 0.052662 
0.040748 -0.170831 -0.092512 
-0.001515 -0.429813 0.094699 
-0.024915 0.040063 0.243098 
0.039008 -0.065211 0.033731 
0.059270 -0.036438 0.059999 
0.019804 -0.034878 0.100430 
-0.061926 0.198355 -0.078274 
0.018064 0.156780 0.140491 
0.022260 0.351600 -0.020025 
0.003056 -0.259198 0.099491 
0.021919 0.441961 0.033606 
0.032050 0.075021 0.071626 
-0.071340 0.261179 0.069033 
0.053710 0.236334 -0.139300 
-0.083211 0.201230 0.003347 
-0.057014 0.252648 -0.086027 
-0.066087 0.113459 -0.062023 
0.031368 0.437862 -0.012993 
0.036962 -0.191419 0.095350 
0.012163 0.039934 -0.232095 
0.038360 0.002583 -0.279537 
0.031027 0.336319 -0.024699 
0.049890 -0.408638 -0.111157 
-0.007041 -0.243251 0.061485 
-0.066769 0.292410 0.003347 
-0.058037 -0.044176 0.082418 
0.014619 -0.090920 -0.107162 
-0.063972 -0.044176 0.052428 
0.062477 0.042300 0.012696 
-0.064313 0.252648 -0.073780 
-0.071647 0.233950 0.085454 
0.050606 0.285233 0.031728 
0.043272 0.299392 0.022045 
-0.009122 0.146228 -0.098658 
0.061795 -0.027816 -0.024699 
0.049924 0.278640 -0.003955 
0.058656 0.170846 -0.004458 
0.016393 -0.392418 -0.090431 
0.060055 -0.359342 -0.090274 
0.061453 0.196555 -0.043397 
-0.050669 -0.020804 0.239404 
0.055518 0.100239 -0.020072 
0.033517 0.148749 -0.196126 
0.020247 -0.497592 -0.082929 
-0.062881 0.339511 -0.001327 
0.054836 -0.361516 -0.111286 
0.022009 0.226929 0.160951 
-0.053785 0.046076 0.073361 
-0.059721 -0.062873 -0.041059 
0.029002 -0.206321 -0.111996 
-0.048191 0.472379 0.024419 
-0.083462 0.030615 -0.001327 
0.012594 -0.296511 -0.078339 
0.041589 0.226933 0.115725 
0.016790 0.086707 0.209446 
-0.034206 -0.160509 0.042946 
0.063249 0.263165 -0.062095 
-0.064940 0.000231 -0.055083 
-0.070875 0.219927 0.084454 
0.060111 -0.011455 0.067410 
0.064307 -0.479032 -0.092049 
0.024840 -0.044176 -0.096368 
0.027637 -0.245122 -0.115256 
0.030434 0.325311 0.062905 
0.049298 0.102039 0.059440 
-0.061426 -0.067697 -0.048133 
-0.083428 0.103067 -0.022362 
0.015426 -0.460197 -0.078158 
-0.073638 0.271345 -0.010676 
-0.054775 0.089044 0.076719 
0.050014 0.119954 0.052323 
0.016483 0.142670 -0.200078 
-0.044644 0.119428 0.080809 
0.036745 -0.137664 -0.035497 
0.022077 0.124102 0.185778 
0.049673 0.168509 0.064667 
-0.020186 0.145516 0.197472 
0.027671 -0.380732 -0.079515 
0.013004 -0.376058 -0.097329 
-0.056855 0.056323 0.064544 
-0.109250 -0.500242 0.097088 
0.005670 -0.072222 0.108480 
-0.068726 -0.490394 0.071005 
-0.084792 0.208241 -0.036385 
-0.067327 0.431178 0.024628 
0.063658 0.222106 0.031577 
0.003930 0.159052 -0.141203 
-0.064530 0.413942 0.032831 
-0.063132 0.278277 -0.045467 
0.008126 0.406580 -0.022468 
0.054585 -0.339149 0.108401 
0.012321 -0.298930 -0.116102 
-0.064871 -0.019636 0.059440 
0.031185 0.327201 0.055026 
0.031185 0.087184 0.081256 
-0.012477 -0.219466 -0.097604 
-0.080938 0.119920 0.025730 
0.009183 0.060958 0.204316 
0.035380 0.166840 -0.185831 
0.011980 -0.362070 -0.104314 
-0.022949 -0.144676 -0.110877 
0.055301 0.199030 0.003219 
0.056700 -0.505521 -0.116001 
-0.013159 0.126398 0.095346 
0.005704 -0.350349 0.092161 
0.021429 -0.175013 0.029230 
0.041691 -0.413345 -0.117694 
0.008160 -0.399475 0.080675 
0.045887 -0.469546 0.104503 
0.023885 -0.499755 0.071272 
-0.053308 -0.055862 -0.093043 
0.035415 0.049312 -0.082582 
0.045546 0.133874 -0.148428 
-0.020118 -0.193801 0.095780 
0.010275 0.149695 0.183177 
-0.050852 0.446635 0.033386 
0.066865 -0.002106 -0.020025 
0.017268 0.079646 -0.190589 
-0.042461 -0.051140 0.243742 
-0.029533 -0.196377 0.082233 
0.054653 0.121355 -0.048447 
0.058849 -0.464871 -0.104610 
-0.002278 -0.123597 -0.115737 
-0.001221 0.199463 -0.157776 
-0.017628 -0.051513 0.108909 
-0.067225 0.133451 -0.069823 
-0.079096 0.194218 -0.055083 
-0.083632 0.103067 0.010359 
-0.057435 -0.002106 -0.076124 
0.013822 -0.336298 -0.085487 
-0.027042 -0.006806 -0.101850 
0.014880 0.356280 -0.020025 
0.067274 0.007242 -0.020025 
0.051208 0.147607 -0.150918 
0.062737 0.252648 -0.034048 
-0.081518 0.227917 -0.048023 
0.024670 0.099206 -0.223417 
-0.032261 0.486237 -0.008074 
0.012799 0.467780 0.029294 
0.065193 0.236287 -0.038722 
-0.034001 0.105405 -0.087769 
-0.084997 0.226939 -0.024699 
0.054721 0.231613 0.078610 
-0.006405 -0.188821 0.033685 
-0.051807 -0.137725 0.059205 
0.064511 -0.266441 -0.099406 
0.010377 0.112351 0.158796 
-0.084281 0.156823 -0.036385 
0.037973 -0.247222 -0.115899 
0.042169 0.219927 0.129556 
0.063829 -0.348424 -0.097152 
0.041827 0.063237 0.070922 
0.059292 -0.357622 -0.106267 
0.046023 0.107279 -0.081054 
-0.051773 0.367170 0.028100 
-0.002517 -0.207780 0.041611 
-0.002517 0.324482 -0.094815 
-0.002517 0.091382 0.097515 
-0.002517 -0.460197 0.069280 
-0.002517 0.194218 0.105351 
-0.066782 0.439963 -0.010804 
0.053732 0.080308 0.001010 
-0.029396 -0.203090 -0.066974 
0.050594 -0.198402 -0.085257 
0.050594 0.067699 -0.031711 
-0.078993 0.063335 0.029056 
-0.078993 0.032952 0.029056 
-0.033933 -0.048556 0.103781 
-0.067464 0.425908 -0.027347 
0.054790 0.061094 0.031696 
0.042919 -0.340908 0.113518 
-0.075139 0.264407 -0.024486 
0.055847 -0.490580 -0.112006 
-0.014012 0.011553 0.099539 
-0.011215 -0.233720 -0.068869 
-0.053478 -0.081571 -0.093429 
-0.055218 0.209684 0.093657 
-0.011556 0.119810 0.160081 
0.017438 0.075132 -0.195526 
-0.048225 -0.016544 0.234559 
-0.017833 0.177817 0.128100 
0.012560 -0.319905 0.070941 
0.041555 0.320343 -0.028039 
0.059019 0.231613 0.021665 
0.042953 0.154486 -0.069106 
-0.022710 0.233950 -0.122862 
-0.053444 0.310667 -0.022362 
-0.053444 -0.086246 0.090698 
0.017813 0.162795 0.136199 
-0.025849 0.112416 0.207914 
-0.060074 -0.020804 -0.073780 
0.046113 0.076557 -0.192500 
0.005248 0.322822 0.103995 
0.042975 -0.047899 0.021054 
-0.059017 -0.069885 -0.041059 
0.037040 -0.161036 -0.040151 
0.041235 0.305956 0.066451 
0.052765 0.269008 0.086318 
0.019234 0.182754 -0.092967 
0.040894 -0.009335 -0.270550 
-0.002768 -0.443837 -0.112283 
-0.010102 -0.246329 0.082877 
-0.052706 -0.058199 0.022059 
0.053481 0.278376 0.041964 
0.054880 -0.042049 -0.048017 
-0.029647 0.203605 0.156194 
0.061872 -0.345674 0.092161 
-0.038721 0.300324 0.119534 
-0.021256 -0.214758 -0.062191 
0.015072 0.131156 0.084533 
0.060133 0.032952 0.059006 
0.045465 0.313590 -0.048046 
0.054197 -0.031800 0.011761 
0.062930 0.084370 0.022045 
0.013333 0.395638 0.003347 
0.005999 0.471991 -0.026618 
-0.043599 -0.146540 0.047483 
-0.043599 -0.151307 0.085428 
-0.013206 -0.497665 0.076234 
0.031855 -0.189082 0.099580 
-0.010750 0.152132 0.137680 
0.026977 0.332470 -0.066752 
0.061906 -0.006781 -0.000159 
-0.006554 -0.432429 0.090992 
0.012309 -0.423090 -0.116147 
0.064704 0.236287 -0.030542 
0.058768 0.222264 0.047754 
-0.044622 0.353147 0.034620 
-0.062428 -0.011455 0.068328 
0.043759 -0.060536 0.043079 
0.046557 -0.406442 0.100279 
-0.055435 0.140462 0.075800 
0.025954 0.180123 0.136547 
-0.017708 0.036701 0.247453 
-0.017708 0.011787 0.259064 
-0.017708 0.482084 -0.018345 
-0.017708 -0.510816 -0.122862 
-0.017708 -0.011820 0.104105 
-0.017708 -0.025886 -0.106758 
-0.017708 0.197129 0.119179 
-0.017708 -0.076897 0.004175 
-0.017708 -0.004443 0.265436 
-0.017708 -0.037373 0.254755 
-0.017708 0.032952 0.098462 
-0.017708 0.100730 0.097079 
-0.017708 0.470024 -0.031523 
-0.017708 0.325627 0.093329 
-0.017708 0.182532 -0.095749 
-0.017708 -0.016130 -0.104734 
-0.017708 0.402228 -0.033906 
-0.017708 0.476351 -0.026288 
-0.017708 -0.510935 0.087486 
-0.017708 -0.483569 -0.085875 
-0.017708 -0.483569 0.068621 
-0.017708 0.018928 0.255713 
-0.017708 -0.474145 0.112160 
-0.017708 0.024008 0.225625 
-0.017708 0.093719 0.096600 
-0.017708 -0.479106 -0.131034 
-0.017708 -0.055085 0.001247 
-0.017708 -0.067548 0.003891 
-0.017708 0.069178 -0.090789 
-0.017708 -0.060536 0.004000 
-0.017708 0.159160 -0.099022 
-0.017708 0.029446 -0.100339 
-0.017708 -0.482252 0.116912 
-0.017708 0.462995 -0.035149 
-0.017708 -0.100268 -0.114306 
-0.017708 -0.032490 -0.108151 
-0.017708 0.051649 0.096651 
-0.017708 -0.109618 -0.114566 
-0.017708 -0.490580 -0.136969 
-0.017708 -0.490580 0.119471 
-0.017708 0.477292 0.029411 
-0.017708 -0.087414 -0.005862 
-0.042507 0.469870 0.030013 
0.022815 0.460358 0.024232 
0.006749 0.105474 0.098925 
0.035743 0.321016 0.010359 
0.002212 -0.296593 0.101436 
0.050070 -0.305942 0.115987 
0.050070 -0.315291 0.115504 
0.050070 -0.345674 -0.071415 
0.050070 -0.270884 0.111381 
0.050070 -0.510335 0.087486 
0.050070 -0.510836 0.080475 
0.050070 -0.296593 0.115593 
-0.053320 0.472560 0.019941 
0.000473 0.110079 0.098681 
-0.056458 -0.480436 0.101422 
0.055323 0.189544 -0.065013 
0.021792 0.046840 -0.218573 
0.059519 -0.469894 -0.087726 
0.001189 -0.413453 0.088655 
0.040314 -0.217090 -0.106186 
0.047307 -0.287244 0.061246 
-0.063417 -0.079234 -0.059757 
-0.000892 0.149971 -0.097339 
0.030900 0.427531 -0.003664 
0.030900 0.446657 0.015053 
0.036494 0.143148 -0.138952 
0.046625 0.295829 -0.111175 
-0.080165 -0.014002 0.017841 
-0.052570 0.330069 0.021026 
0.059212 -0.036940 0.026191 
0.059212 -0.320250 0.108285 
-0.034047 0.039789 0.230009 
0.048740 0.138125 -0.059519 
0.060269 0.247973 0.033731 
-0.086783 0.198900 0.031381 
0.054334 0.059126 -0.010676 
-0.054992 0.313415 0.024382 
0.049797 -0.353215 -0.073948 
0.045260 0.289518 0.012136 
0.036187 0.327705 -0.020129 
0.062384 0.138125 0.043079 
0.062384 0.240962 -0.113513 
-0.006077 0.210536 -0.107956 
-0.029477 -0.462495 0.091790 
0.051912 -0.266209 -0.116357 
0.056108 0.262905 0.059313 
-0.061950 0.293864 -0.024998 
0.059962 -0.018467 0.067205 
0.008966 0.082032 0.221689 
0.045294 -0.418037 0.099125 
-0.014434 -0.458941 -0.113513 
0.014561 0.196797 -0.111417 
0.061020 -0.499929 0.092161 
-0.024906 0.078900 0.192357 
0.004089 0.397176 0.024655 
-0.079040 0.016591 0.024382 
0.051946 0.068010 -0.009507 
-0.000448 -0.279064 0.092161 
0.066273 -0.025478 0.050091 
0.050206 -0.497191 0.107625 
0.019473 -0.207712 -0.040315 
-0.050387 0.221274 0.100418 
0.045670 0.128311 -0.200255 
-0.083918 0.162666 -0.006002 
-0.073787 0.002568 -0.031711 
-0.038857 0.056522 0.085356 
-0.043394 -0.167973 -0.069417 
-0.055264 -0.477151 0.094610 
0.050923 -0.032490 -0.066397 
-0.008805 -0.213538 0.043538 
-0.008805 -0.129180 0.015929 
0.036255 -0.163373 -0.097414 
0.002724 -0.242838 0.099425 
-0.071672 0.196555 -0.069268 
-0.068875 -0.011455 0.047754 
-0.058744 -0.034930 -0.080914 
-0.016821 0.417352 -0.040960 
-0.027294 0.070347 0.202008 
0.052697 -0.037164 0.071126 
0.005896 0.127804 0.094350 
0.005896 0.119428 -0.195315 
-0.063963 -0.066379 0.059440 
-0.036367 -0.498942 -0.144007 
-0.016105 -0.221803 0.085675 
-0.065702 0.283122 0.049840 
-0.095038 -0.490232 -0.122435 
-0.095038 -0.497897 -0.127054 
0.050275 -0.046736 -0.052630 
-0.053115 0.357837 -0.022601 
0.026533 -0.118599 -0.101686 
0.017460 0.140865 0.188112 
0.047853 0.098393 -0.214012 
0.026896 -0.104866 -0.017487 
-0.015367 0.411569 -0.043014 
0.003496 -0.233129 -0.059862 
-0.031433 0.114753 -0.088330 
0.042622 -0.422802 -0.116210 
-0.035970 -0.062873 -0.106940 
-0.047841 -0.051156 -0.010308 
0.056948 -0.350349 0.075800 
-0.004179 0.396782 0.029297 
-0.052718 0.472281 -0.017645 
-0.060052 -0.067548 0.080475 
-0.025123 -0.193533 0.047334 
0.054867 -0.041988 -0.029763 
0.038801 0.103197 -0.162692 
-0.048523 0.042300 0.082245 
0.057664 0.226939 0.064114 
-0.029659 0.133906 0.090196 
0.035663 -0.086246 -0.081214 
-0.066329 0.467069 0.003347 
-0.057596 0.082243 0.071457 
0.064657 0.021265 0.054340 
0.057323 0.231613 0.015033 
-0.039074 0.309128 -0.057058 
0.040575 -0.072222 -0.042821 
0.007044 -0.004443 -0.280722 
0.045828 -0.120351 0.059353 
0.019290 0.066052 0.085435 
0.040950 0.072108 0.061997 
0.043747 0.226939 0.124881 
0.061212 0.090032 -0.006002 
-0.081644 0.002568 0.016026 
0.012672 0.402231 0.019705 
0.031536 -0.019194 -0.270370 
-0.071855 0.229276 -0.069734 
-0.034128 0.215973 0.109918 
0.058790 0.133332 -0.038633 
-0.085465 0.198892 0.017459 
0.029455 -0.050730 -0.008854 
0.022121 0.051749 -0.214188 
-0.052275 0.135586 0.078645 
0.020381 0.086707 0.194997 
0.021780 0.456529 0.028744 
0.047977 0.103067 0.031393 
0.040643 -0.151687 -0.090143 
0.018642 -0.502729 -0.125833 
0.012706 -0.371384 0.078154 
0.015503 0.446635 -0.031147 
-0.077756 0.419758 0.012696 
-0.057494 0.331251 0.007761 
-0.025703 0.163835 0.169288 
0.030887 -0.116629 0.093855 
-0.021507 -0.203105 0.047230 
-0.004042 -0.228483 -0.060119 
0.053605 0.292555 -0.085485 
-0.084714 0.140462 -0.029374 
-0.041052 -0.044176 -0.101737 
0.012740 -0.334178 0.108455 
0.005407 -0.210210 -0.046527 
-0.064453 -0.499929 0.124967 
-0.064453 -0.509817 0.069878 
-0.064453 -0.509625 0.123620 
-0.064453 -0.510412 0.117870 
-0.064453 -0.478645 0.087486 
-0.064453 -0.481479 0.102023 
-0.064453 -0.493355 -0.140043 
-0.064453 -0.509996 -0.127536 
-0.000870 -0.189219 0.103809 
-0.078063 0.413914 0.019708 
0.003326 -0.405880 0.096323 
-0.028807 0.238625 0.145479 
0.027783 -0.058199 0.095435 
0.048045 -0.189082 0.052428 
-0.065817 0.292453 0.026431 
-0.048352 0.299779 -0.052361 
0.040370 0.105972 -0.218533 
-0.010626 -0.228750 -0.064513 
-0.000495 -0.186351 -0.036501 
-0.056027 -0.118966 0.075800 
-0.043099 0.049374 -0.082810 
0.057153 0.046974 0.057103 
-0.062304 0.044637 0.059541 
0.052616 0.246805 0.096835 
-0.023178 -0.214792 -0.087804 
-0.081508 0.245508 0.052328 
0.066943 -0.333988 -0.094815 
-0.011649 0.079875 0.094369 
-0.087443 0.217590 0.052428 
0.063804 0.045153 0.036068 
0.012809 0.185354 0.173399 
0.040404 -0.182071 -0.046137 
0.025737 -0.273225 -0.120712 
0.054731 0.290929 -0.076211 
0.057528 -0.496587 -0.079410 
-0.057733 -0.027816 0.080963 
0.004793 0.482534 0.012353 
0.030990 0.213257 0.159633 
-0.009875 -0.175325 -0.036511 
-0.010557 -0.439162 0.085801 
-0.025225 0.170846 0.171215 
0.012502 0.412109 -0.022198 
0.022633 -0.055862 0.099523 
0.024031 0.140570 -0.092606 
0.061758 0.269008 -0.094815 
-0.048966 -0.062873 -0.097935 
0.055822 0.264120 0.026628 
-0.062235 0.030615 -0.059966 
0.070149 0.007242 0.043079 
0.019153 0.082032 0.202008 
0.017414 0.095984 0.206818 
0.034878 0.124307 -0.147780 
0.034878 -0.510337 0.082812 
-0.043713 -0.072158 0.014777 
-0.032184 -0.472270 -0.119655 
-0.071650 0.378289 0.015275 
-0.071650 0.444039 0.012837 
-0.001791 0.059082 0.234542 
-0.007726 0.187206 -0.141559 
-0.029728 -0.104546 -0.017474 
-0.003530 0.304196 -0.130037 
-0.053128 -0.132565 -0.071443 
0.012195 -0.333988 -0.111755 
0.023724 0.122934 0.176300 
0.042587 0.039963 -0.237384 
-0.095732 -0.489174 -0.115850 
-0.082804 0.247973 0.012696 
-0.012945 0.323886 -0.085605 
0.040848 0.236287 0.136746 
-0.062542 -0.068899 0.050182 
-0.036345 -0.034627 -0.102928 
-0.043679 0.077932 -0.078689 
-0.032150 0.055155 0.223044 
0.040507 -0.076897 -0.062390 
-0.082088 0.082032 -0.027037 
-0.002098 0.191881 -0.158943 
-0.028989 0.049080 0.216440 
0.024803 0.155860 0.088646 
-0.005930 0.409032 0.037453 
-0.071594 0.416468 0.029094 
0.033195 -0.210117 0.038017 
0.019926 -0.228979 0.043005 
0.047521 -0.132989 0.059440 
0.057652 0.051649 -0.020025 
-0.057609 -0.090920 0.082958 
-0.002417 -0.438769 0.104005 
-0.053413 -0.006781 0.085953 
-0.009751 -0.151758 0.107878 
-0.059348 0.294718 -0.031711 
0.022040 -0.072428 0.010344 
-0.071219 0.429479 -0.015593 
0.052433 -0.291937 -0.067768 
-0.008693 0.000231 0.238738 
-0.067023 0.154486 0.057365 
-0.081691 0.179026 -0.043246 
0.059426 0.135173 0.005659 
0.038823 -0.261400 0.112897 
-0.082032 0.133451 0.031393 
0.015423 -0.453185 -0.078299 
0.042678 -0.427476 0.074981 
-0.022986 0.032586 0.248571 
0.006008 0.359503 0.026962 
0.049670 -0.338982 -0.069229 
0.047931 -0.161036 -0.078455 
0.005667 -0.310617 -0.099490 
0.050728 0.011917 -0.069734 
0.009863 0.063335 -0.224530 
0.019994 0.126128 -0.148342 
0.063656 0.089044 0.017370 
0.045850 0.254774 -0.139639 
-0.048808 -0.055862 -0.016908 
0.066112 -0.333988 -0.087804 
-0.037278 0.214084 0.138904 
-0.079542 0.039963 0.029056 
0.000448 0.049312 0.235133 
0.052843 0.278357 0.050091 
0.011978 0.133492 -0.200637 
0.032240 0.313699 -0.099468 
0.033638 -0.203295 0.037242 
0.045168 0.131114 0.061420 
0.040631 -0.161025 0.089707 
-0.071492 0.172222 0.063889 
0.024565 0.108512 -0.091984 
-0.036562 -0.084905 -0.014035 
0.046225 -0.252186 -0.063940 
-0.029569 -0.169938 0.094650 
0.024224 -0.124888 -0.021570 
-0.069036 -0.509542 -0.094676 
0.019687 0.000231 -0.240850 
0.019687 -0.198431 0.105412 
0.019687 -0.495255 0.114913 
0.019687 -0.457859 -0.126871 
0.019687 0.309156 -0.122705 
0.019687 -0.200768 -0.038178 
0.019687 -0.240501 0.106221 
0.019687 -0.187914 0.030489 
0.019687 0.261997 -0.146636 
0.019687 -0.443987 -0.125052 
0.019687 -0.471883 -0.127394 
0.019687 -0.511281 0.099172 
0.019687 0.212915 -0.165153 
0.019687 -0.434488 0.068820 
0.019687 -0.245175 -0.113534 
0.019687 -0.006640 -0.283742 
0.019687 0.136738 -0.098167 
0.019687 -0.210117 0.035234 
0.019687 -0.511055 0.093329 
0.019687 -0.439162 0.107190 
0.019687 -0.488243 0.114540 
0.019687 -0.511429 0.106183 
0.019687 -0.202806 0.033346 
0.019687 -0.510635 -0.090141 
0.019687 0.119428 -0.100795 
0.019687 -0.422802 0.069399 
0.054616 -0.418127 -0.088001 
-0.032708 0.042300 0.234729 
0.015150 -0.044300 0.103083 
0.060211 -0.493254 0.089824 
0.054275 0.287879 -0.031248 
-0.081247 0.128777 0.022045 
0.049738 0.213348 0.081877 
0.058471 0.187206 -0.004763 
0.035071 -0.044176 -0.085820 
-0.059587 -0.104943 -0.066769 
-0.048057 0.212968 -0.091782 
0.063724 0.035632 -0.022362 
0.022518 -0.048851 0.099472 
0.057448 0.250311 0.059440 
0.015184 -0.260516 -0.068266 
-0.051878 0.480503 0.003347 
0.020778 -0.394644 -0.116025 
0.064440 -0.284907 -0.078039 
-0.087149 -0.499040 0.117862 
0.008908 0.143265 0.089892 
0.035105 0.241272 -0.152977 
-0.043487 -0.506738 -0.087542 
-0.039291 -0.135326 -0.102317 
-0.067228 -0.029743 0.036068 
-0.022167 0.149811 0.169288 
0.045952 0.124341 -0.152775 
-0.061975 0.260214 -0.073031 
-0.025647 -0.034608 0.233978 
0.038277 0.065317 -0.199616 
0.013479 -0.432295 -0.116234 
0.065873 0.018928 -0.013013 
0.024667 0.089789 -0.228108 
-0.035061 -0.478697 0.071686 
-0.077325 0.119428 0.050051 
0.046327 0.018928 -0.074595 
-0.022474 0.361670 -0.035504 
0.049841 -0.035028 0.075504 
-0.008489 -0.509545 -0.134973 
0.010375 -0.249664 -0.066762 
-0.042020 -0.165734 0.078161 
-0.064362 -0.503607 -0.144073 
0.024360 -0.013406 -0.279126 
0.050557 0.084081 0.050067 
0.066282 0.009579 -0.043397 
0.041484 -0.474220 0.109072 
-0.045840 -0.050463 -0.003404 
0.050216 0.039852 -0.069280 
-0.044442 0.336787 0.034892 
0.000619 -0.009118 0.255764 
-0.085307 0.217590 -0.029374 
0.010750 0.230649 -0.154391 
0.038345 0.121746 -0.210611 
-0.036050 0.400893 -0.036177 
0.036606 -0.058199 0.085871 
-0.047921 0.317248 0.040811 
-0.047921 -0.142765 -0.086958 
0.065600 0.011917 -0.006002 
0.014604 -0.467208 -0.078833 
-0.053856 -0.128259 0.060749 
0.043599 -0.266932 0.113119 
-0.024862 -0.123735 0.020571 
-0.083533 0.082032 -0.006002 
0.012523 0.054503 -0.223016 
-0.080736 0.034867 0.024071 
0.053047 -0.319965 0.113201 
0.003450 -0.252106 -0.073941 
0.031046 0.197027 0.149484 
-0.050684 -0.137664 0.080475 
0.045372 -0.474718 0.075805 
-0.063953 -0.062873 0.066451 
-0.055221 -0.100268 0.085149 
0.001369 -0.253044 0.066110 
-0.058359 0.339110 0.012611 
-0.064294 -0.067548 -0.064432 
-0.055562 0.278357 0.098003 
-0.078962 0.430142 -0.008285 
0.012558 0.355431 0.027151 
0.056220 0.093497 0.017370 
0.031421 0.299598 0.115439 
0.003143 -0.427487 -0.099466 
-0.057984 0.305934 -0.010676 
-0.087672 0.397554 -0.001327 
-0.071947 0.119428 0.057674 
0.019572 -0.161036 0.104433 
0.047168 -0.132989 0.066451 
-0.011162 -0.243405 0.065260 
-0.002429 -0.202839 -0.107903 
-0.053425 -0.030153 -0.088635 
0.019231 -0.265042 0.058066 
0.020630 -0.376058 0.070629 
0.017491 0.132876 0.192796 
0.036355 0.273324 0.132235 
0.047884 -0.149350 -0.059757 
0.043347 0.086707 -0.064432 
0.027281 -0.175059 -0.106944 
-0.048513 0.273682 0.119776 
0.041608 -0.088583 -0.052746 
-0.044318 0.147474 0.081400 
0.054536 -0.041032 0.064626 
0.063268 0.184869 -0.010224 
0.003540 0.049312 0.230502 
0.032534 0.444298 0.008021 
-0.049195 -0.081571 0.095466 
0.005996 0.128777 -0.188303 
-0.036267 0.203567 0.141242 
0.059789 0.138125 0.049649 
-0.010070 -0.441392 0.092389 
0.017526 -0.407361 -0.087976 
0.055252 0.168509 0.001010 
0.063985 -0.016642 0.015288 
0.047918 0.285369 0.089824 
-0.019144 0.236287 0.153687 
-0.035210 0.061330 0.085553 
-0.029616 0.313626 -0.071128 
0.008111 -0.310877 0.075945 
-0.035551 0.314190 0.101509 
-0.055097 0.194369 0.087367 
-0.020167 0.318183 -0.089913 
0.029089 0.458321 0.010359 
-0.005840 -0.160670 -0.031313 
-0.071504 0.035289 0.045456 
0.059482 -0.024951 0.066543 
-0.086172 0.423278 0.001523 
-0.039713 -0.172759 -0.085486 
0.050408 -0.406442 0.095174 
0.027008 0.337131 -0.052675 
-0.006523 0.322415 -0.099678 
0.045531 0.295670 0.068861 
0.029464 -0.310617 0.056850 
0.038197 0.007270 0.081358 
-0.027467 0.068010 -0.087361 
-0.078463 0.051649 -0.029374 
0.010260 0.343104 0.065238 
-0.024670 -0.002631 0.230018 
0.046588 -0.217347 -0.057510 
-0.039337 -0.179569 0.068788 
0.005723 0.157140 -0.087118 
0.040312 -0.088472 0.068992 
-0.058883 -0.481723 -0.100010 
0.054638 0.231539 -0.094610 
0.031238 0.201595 0.118022 
0.026701 0.437772 -0.022370 
0.045565 0.292568 0.022077 
-0.062362 0.100724 -0.069342 
-0.031969 0.175520 0.148253 
-0.081567 0.152148 0.040539 
0.050818 -0.025478 0.076517 
-0.001577 -0.257237 -0.085899 
-0.094836 -0.507657 0.096835 
-0.094836 -0.507403 0.087486 
-0.094836 -0.507489 0.103846 
-0.094836 -0.490580 0.111099 
-0.094836 -0.490580 0.077282 
0.038947 0.205904 0.148253 
-0.048377 0.296518 0.099172 
-0.052913 -0.481214 -0.097114 
-0.068980 -0.023141 -0.034048 
0.027077 -0.510109 0.110950 
0.019743 -0.287244 -0.120367 
-0.022521 -0.155025 0.103010 
0.007872 0.003105 -0.241903 
0.060266 0.083855 0.015033 
-0.027057 -0.502266 -0.089980 
-0.027057 -0.052356 0.106855 
-0.027057 0.000231 -0.100549 
-0.027057 0.079127 0.092123 
-0.027057 0.142799 0.091502 
-0.027057 0.180195 -0.096269 
-0.027057 0.376519 -0.035508 
-0.027057 -0.510661 0.085149 
-0.027057 -0.511027 -0.122862 
-0.027057 0.484463 -0.013013 
-0.027057 -0.480214 0.070021 
-0.027057 0.195387 -0.096023 
-0.027057 0.034120 0.097272 
-0.027057 0.384700 -0.034838 
-0.027057 -0.491736 0.070831 
-0.027057 -0.485906 0.069315 
-0.027057 -0.510537 0.110858 
-0.027057 -0.510481 0.101509 
-0.027057 0.395217 0.036381 
-0.027057 0.128777 -0.085782 
-0.027057 -0.490580 0.120849 
-0.085387 0.235914 0.013755 
0.045599 -0.464842 0.075591 
-0.006796 -0.249598 -0.092478 
-0.082590 0.063335 0.015033 
0.022199 0.157243 0.145536 
-0.063727 -0.073391 0.064114 
-0.009934 -0.166100 0.029136 
0.056787 0.212915 0.059440 
0.047714 0.056323 -0.064432 
-0.085012 0.147474 -0.009507 
0.019777 0.014086 -0.274662 
-0.081157 0.125303 0.031237 
0.014899 0.182564 -0.175495 
-0.087093 0.233950 0.040742 
0.045292 0.236006 0.103922 
-0.014436 0.058591 0.095189 
0.065554 -0.280233 0.087486 
0.025746 -0.147013 0.025691 
0.066270 0.208241 -0.020025 
0.057197 0.032952 -0.059757 
-0.028729 0.182532 0.162622 
-0.027330 -0.032746 0.263111 
0.044985 0.198662 -0.082702 
-0.006011 0.131129 -0.092459 
0.043245 -0.062873 0.071126 
0.044644 0.288200 -0.120330 
0.012511 -0.027959 -0.255648 
-0.024158 -0.221919 0.065531 
0.038367 -0.011455 0.085115 
0.055832 0.108910 -0.183629 
-0.058371 -0.043815 0.024519 
0.055150 0.268900 0.054766 
0.055150 -0.404104 -0.090527 
-0.044045 0.280694 0.124341 
0.052012 -0.205442 0.066451 
0.069135 -0.317576 -0.090157 
-0.054858 -0.047423 -0.010676 
-0.086990 0.225770 0.050091 
0.026531 0.456510 -0.016937 
-0.084193 0.086707 0.008021 
0.005928 0.439623 0.042456 
0.050988 0.100506 -0.207060 
0.043654 -0.132989 0.043079 
0.055184 -0.235826 0.073833 
0.055184 0.227409 0.072472 
0.039822 -0.124895 0.082943 
0.022016 0.105352 0.190352 
0.005950 0.110079 -0.192977 
-0.087310 0.231613 0.022045 
-0.013255 0.150839 0.197675 
-0.064251 0.413914 -0.032478 
-0.029321 -0.114092 -0.021484 
-0.013596 0.345931 0.056864 
0.034262 0.322807 -0.072912 
0.061857 -0.343337 0.083981 
0.010862 0.039963 -0.096871 
0.054524 -0.221803 0.072921 
-0.015336 0.095978 0.221777 
0.055922 -0.380697 -0.090022 
0.051385 0.072684 0.016202 
0.049646 0.273228 0.008898 
-0.020213 0.143096 0.168924 
0.063972 0.222259 -0.057510 
0.031840 -0.067548 -0.088540 
0.031840 0.141222 -0.085217 
0.049305 0.100833 -0.067001 
0.036036 -0.009115 -0.274776 
-0.076087 0.180255 0.054766 
-0.022294 0.264580 0.146774 
0.022766 0.465162 0.018742 
0.038491 -0.072222 0.033731 
0.019287 -0.076897 -0.007706 
0.065746 -0.010287 -0.020025 
0.006018 -0.201128 -0.040869 
0.033614 -0.004417 -0.280542 
0.017547 0.103272 0.095019 
0.002880 0.009579 -0.249213 
0.055274 0.004905 -0.065036 
0.005677 -0.016115 -0.100420 
0.005677 0.119428 -0.188303 
-0.059987 -0.086246 0.047754 
-0.025057 0.086665 0.187024 
0.048998 -0.048989 0.064054 
0.024199 0.152148 0.164613 
0.003596 0.454525 0.043182 
0.041323 -0.086246 0.061777 
-0.051937 -0.089587 -0.033888 
-0.068003 0.138125 0.057664 
0.054251 0.219927 0.073847 
0.048315 0.285369 0.024382 
0.067179 0.025940 0.047754 
-0.001282 0.201305 -0.116021 
-0.017348 0.385868 0.032976 
0.001515 0.341495 -0.059825 
-0.084410 0.240982 0.045456 
-0.035154 0.199102 0.134318 
0.046235 -0.046785 -0.020208 
-0.029560 -0.193231 0.052221 
0.015501 0.285099 -0.139107 
-0.063091 0.077348 0.061785 
-0.021168 -0.226442 -0.080792 
-0.027104 0.281984 0.139773 
-0.057838 0.353189 -0.017979 
0.048350 0.173183 -0.134547 
0.057082 -0.508570 -0.111175 
0.057082 -0.508458 -0.087804 
0.057082 -0.508750 -0.081960 
0.006086 -0.243117 -0.064200 
-0.037576 0.465333 0.035601 
0.042414 -0.076897 0.054766 
0.059879 -0.460197 -0.090474 
-0.062716 0.287529 -0.031233 
-0.080521 0.002568 -0.011040 
-0.010662 0.014178 0.234704 
0.051863 -0.392418 0.089824 
0.034057 -0.474220 0.112747 
0.026723 0.441961 0.026774 
0.042448 -0.097931 0.047754 
0.036513 0.306138 0.090774 
0.045245 -0.394303 0.075946 
-0.015881 0.149559 -0.097379 
-0.007149 0.196655 -0.127737 
0.002982 -0.462534 0.113362 
-0.048014 0.017074 -0.087715 
0.053637 0.266671 0.068788 
-0.052892 0.475944 -0.010755 
0.044563 -0.142338 0.045243 
0.019765 0.151095 -0.082089 
-0.015165 0.118862 0.164799 
-0.003635 0.472611 0.034053 
0.023960 0.295058 -0.130115 
0.058890 0.154486 -0.038941 
-0.061965 0.357320 0.014855 
0.061687 0.208231 -0.120552 
0.054353 -0.294256 0.112929 
0.021879 0.346028 -0.039176 
-0.080112 0.045614 0.026827 
-0.035052 0.018928 0.233664 
-0.058452 0.259660 0.101217 
0.005472 0.198804 0.170628 
-0.020725 0.228522 -0.111175 
0.064859 0.039832 0.021930 
-0.063330 -0.039501 -0.062095 
-0.063330 0.364833 0.016130 
-0.077997 0.390543 -0.018216 
-0.015472 -0.184488 -0.041788 
-0.006740 0.332210 0.085296 
-0.081135 0.250579 0.045387 
-0.034676 -0.172722 -0.053246 
-0.074143 0.247973 -0.055083 
0.040777 -0.013971 -0.265536 
0.059640 0.257323 -0.117735 
0.069771 -0.499929 -0.097152 
-0.032220 -0.130652 0.103247 
-0.045490 -0.161036 -0.071443 
0.050567 0.072511 -0.015569 
-0.002169 -0.469979 -0.083141 
0.060357 0.016591 -0.057232 
0.041152 0.039963 0.076129 
0.033818 -0.399308 -0.078636 
-0.054188 -0.121304 -0.083129 
0.062130 -0.032490 0.057103 
0.002402 0.114753 -0.093134 
-0.082125 0.138384 -0.038741 
-0.071994 0.357976 -0.001327 
0.007996 0.360154 -0.006494 
0.044324 0.055086 -0.216320 
-0.034267 0.209902 0.117535 
-0.034267 -0.155891 -0.045508 
0.002061 0.021296 -0.098172 
-0.040202 -0.011455 0.229531 
-0.028673 -0.189506 -0.054945 
0.033852 0.046037 -0.251102 
0.070181 -0.296593 -0.094815 
-0.078611 0.231613 -0.055083 
-0.013289 -0.466196 -0.088724 
0.008372 0.396594 0.020094 
0.017104 -0.357360 0.070823 
0.017104 0.045168 -0.250860 
0.063563 0.212915 0.026279 
0.003835 0.040306 0.225381 
0.066360 -0.324639 0.094498 
0.050294 0.098139 -0.057352 
-0.018167 0.438206 -0.040159 
0.033533 -0.022522 -0.257150 
-0.040863 -0.018467 -0.098195 
0.031452 0.210354 0.103915 
0.042982 -0.259369 -0.063491 
-0.015348 -0.219439 -0.059814 
0.047178 -0.505146 -0.120500 
0.060106 0.126194 0.040306 
0.054170 0.112482 0.024319 
0.036364 0.264305 0.136963 
-0.048162 -0.151726 0.068788 
-0.062830 -0.037935 0.022045 
0.021356 -0.371384 -0.082175 
-0.057236 0.284423 0.082771 
0.008086 0.156926 -0.174280 
0.004948 0.364833 -0.001327 
0.031145 0.100761 -0.224498 
0.001810 0.264315 0.151333 
0.045472 0.172832 -0.129760 
-0.012858 0.110066 0.095733 
0.040935 0.306599 0.022121 
-0.053723 -0.011455 -0.085202 
0.035000 0.208015 0.117774 
-0.052324 0.297632 0.071126 
0.007063 -0.436954 -0.116101 
0.036057 -0.240523 -0.055736 
-0.022272 -0.133258 0.107982 
-0.013540 -0.128315 -0.115686 
0.060515 -0.490580 -0.107818 
-0.082342 0.410408 -0.009875 
0.041310 0.046974 0.076259 
0.050043 -0.191494 0.080438 
0.050043 0.077196 -0.202326 
-0.062080 0.472311 0.005276 
0.051441 0.189544 -0.146233 
-0.043216 0.035696 0.089663 
0.064369 -0.488651 -0.102262 
0.049702 -0.196094 0.083391 
0.049702 0.129096 -0.194911 
-0.020157 -0.095843 -0.008982 
-0.053688 -0.076897 0.090947 
-0.066958 0.267012 -0.052318 
-0.072893 0.145137 -0.055083 
-0.003034 -0.443837 -0.094815 
-0.076031 0.264265 0.040742 
-0.034109 -0.055091 0.003327 
-0.025376 0.063178 0.230691 
-0.016644 0.323301 -0.076117 
-0.015245 0.149924 0.141399 
-0.048776 0.002568 0.090567 
-0.019782 0.264334 -0.134300 
-0.053313 0.238625 -0.094279 
-0.058191 0.025940 0.073096 
0.055330 0.128777 -0.047791 
0.036126 -0.128719 -0.092601 
0.040321 -0.116629 0.078652 
-0.029538 0.286126 -0.120834 
0.008189 0.302333 0.131993 
-0.066207 -0.020529 -0.048097 
0.022515 -0.100268 -0.102266 
0.051510 0.075021 0.001010 
-0.082614 0.156823 0.017370 
0.041038 0.236312 0.108196 
0.045233 -0.483086 0.075937 
-0.081557 0.063331 -0.018837 
0.060958 0.271345 -0.043397 
0.055023 -0.352635 0.104145 
-0.071767 0.426376 0.021784 
0.003686 -0.016619 -0.256311 
-0.057441 -0.490708 0.122413 
-0.057441 0.378856 0.026141 
-0.057441 -0.509797 0.070019 
-0.057441 0.413914 -0.034954 
-0.057624 -0.510669 -0.104019 
-0.057441 0.441961 0.032522 
-0.057441 0.448972 0.031000 
-0.057441 0.360159 -0.020108 
-0.057441 -0.497592 0.124812 
-0.027048 -0.467221 0.104828 
-0.075247 0.245917 0.073289 
-0.101444 -0.505154 0.099172 
0.048405 0.070347 -0.211675 
0.010338 -0.149350 0.021858 
0.010338 -0.151328 -0.026571 
0.010340 -0.511210 0.082803 
0.010338 0.346552 -0.052244 
0.010338 -0.158699 -0.029078 
0.010338 -0.492917 0.115105 
0.010338 -0.189082 -0.111732 
0.010338 -0.121304 -0.014865 
0.010338 -0.166879 0.106605 
0.010338 0.266671 -0.145575 
0.010338 -0.510505 -0.094815 
0.010338 -0.116629 0.012705 
0.010338 0.183330 0.123067 
0.010338 0.264468 0.150746 
0.010338 0.177857 0.125436 
0.010338 -0.088583 -0.005401 
0.010338 0.160073 0.093392 
0.010338 -0.081571 -0.004648 
0.010338 -0.511507 0.101509 
0.010338 -0.471883 -0.127116 
0.010338 0.189208 0.118742 
0.010338 -0.481232 0.068588 
0.010338 0.135788 -0.101518 
0.010338 0.197616 0.107442 
0.010338 0.256309 0.154043 
0.010338 -0.135326 -0.020186 
0.010338 -0.182071 -0.033615 
0.010338 -0.182071 0.105174 
0.010338 -0.473052 0.114908 
0.010338 -0.511460 0.108521 
0.010338 -0.175059 0.027635 
0.010338 0.233950 0.162406 
0.010338 -0.511317 0.092161 
0.010338 0.314586 -0.120991 
0.010338 -0.072222 -0.004308 
0.010338 0.335471 -0.072849 
0.010338 -0.186745 0.029536 
0.055398 0.200678 -0.118187 
0.001264 -0.133054 -0.018673 
0.011395 -0.266209 -0.072920 
-0.003273 0.318222 -0.116106 
-0.085002 0.189544 0.031839 
0.005119 0.201420 -0.111405 
0.005119 0.136080 0.197441 
0.032714 -0.016170 0.089470 
-0.053211 0.467885 0.024521 
0.042845 -0.411245 0.103795 
-0.040283 -0.164713 -0.089469 
-0.014086 -0.239552 0.082919 
0.048440 -0.436825 0.094498 
-0.030152 0.209906 0.113195 
0.049838 -0.422802 -0.110963 
-0.079749 0.091351 0.040854 
0.051237 0.119428 0.045417 
0.000241 -0.006781 -0.258419 
0.010372 -0.199538 0.104308 
0.020503 -0.357360 -0.116375 
0.064165 0.254985 -0.077136 
0.064165 -0.028600 0.026955 
0.005835 0.007218 0.094710 
0.014475 0.355954 0.003290 
-0.037827 0.096056 0.088592 
-0.059828 0.396256 0.032739 
-0.048299 0.011917 0.090047 
0.049156 -0.176228 -0.066769 
0.024357 -0.252187 -0.060601 
0.062084 0.134620 0.022045 
0.019821 -0.108207 -0.013701 
0.063483 0.261997 -0.080792 
0.063483 0.245666 -0.029305 
-0.082171 0.110079 0.022045 
-0.029777 0.166526 0.152928 
0.054409 0.103431 -0.052815 
-0.075178 0.236100 0.078220 
-0.073780 0.021265 -0.036385 
0.022277 0.327718 0.077687 
0.006210 -0.356192 0.092161 
-0.085650 0.212915 0.058905 
0.010406 -0.006592 -0.095860 
0.010406 -0.238113 -0.058750 
0.036603 -0.196094 0.038067 
0.045336 0.308665 -0.070969 
-0.084252 0.231613 -0.017688 
-0.075519 0.051649 0.036375 
0.005869 0.058750 0.093481 
-0.032199 -0.194996 -0.066534 
0.047792 -0.315078 -0.124182 
0.017058 0.090810 -0.223605 
0.035921 -0.202555 0.099059 
-0.048606 0.236287 -0.098713 
0.058980 -0.263872 -0.074196 
0.067712 0.007242 -0.036385 
0.003447 0.411304 0.033810 
0.012180 0.147798 -0.138978 
0.006244 -0.104943 0.108346 
-0.063615 -0.081571 -0.066769 
-0.049288 -0.032490 -0.093520 
0.055501 0.122934 -0.174280 
-0.055223 0.441728 -0.030879 
0.052362 0.271345 0.096835 
-0.008764 0.293918 -0.134311 
0.010099 0.072684 -0.222193 
0.012896 0.455683 -0.031825 
0.040492 0.080034 -0.063568 
0.054818 -0.509310 0.092156 
-0.029708 -0.137113 0.028844 
-0.070573 0.097225 -0.053055 
0.049940 0.190027 -0.153054 
-0.028651 0.026354 0.248603 
-0.033188 -0.046645 0.253573 
-0.008026 -0.182071 -0.111483 
0.054499 -0.411116 -0.105946 
0.057296 0.264334 0.036068 
0.051361 0.196555 -0.143896 
0.045426 0.182266 0.075846 
-0.081365 0.212915 0.068347 
-0.043638 -0.085811 0.019483 
-0.084503 0.198892 -0.015350 
0.044743 -0.224140 -0.056903 
-0.004854 -0.156361 -0.114730 
-0.004854 -0.474220 0.068665 
-0.004854 0.165617 0.188955 
-0.082047 0.197936 0.059346 
0.038467 -0.369295 0.109129 
-0.031392 -0.123641 0.104639 
-0.072257 -0.015044 -0.028937 
-0.062126 -0.088658 0.059691 
0.019263 -0.371384 0.108052 
-0.068061 0.215253 0.086371 
-0.024399 0.073149 0.225106 
0.032191 -0.086246 0.022362 
0.049655 0.105431 0.023155 
0.024857 -0.018467 -0.091859 
0.059786 -0.273202 -0.111607 
0.062583 0.129945 -0.020025 
0.056648 -0.432150 -0.097152 
-0.064207 -0.039501 0.057103 
-0.043945 -0.160944 0.057286 
0.001116 0.378856 0.015033 
-0.042546 -0.123641 -0.100999 
-0.079216 0.241012 0.065354 
0.055625 -0.226477 0.080475 
0.002889 -0.006792 -0.251008 
0.055284 -0.359697 0.101064 
