0.131403 0.083760 0.012136 
-0.296181 0.083144 -0.017638 
0.256413 -0.053967 0.025242 
-0.188172 0.118302 -0.094065 
-0.094702 0.008393 0.155613 
-0.082471 -0.002726 0.163276 
0.391630 0.016970 0.007721 
-0.156371 -0.051110 0.121972 
-0.168750 -0.129990 -0.077782 
-0.378068 -0.001668 -0.122633 
-0.035177 -0.014949 0.191839 
-0.289548 0.079811 -0.046108 
-0.270766 -0.086799 0.005464 
-0.266651 0.005874 -0.109165 
-0.264006 -0.090937 -0.007750 
0.186153 -0.032571 -0.073703 
0.470509 -0.081440 -0.044696 
-0.308766 0.055970 -0.088959 
0.206736 0.037694 -0.066984 
-0.410716 -0.042408 -0.050791 
-0.233553 0.091372 -0.076477 
0.194558 0.006215 0.092504 
0.236113 0.007691 0.077647 
-0.466021 -0.016842 -0.118739 
-0.112013 0.076610 -0.066560 
-0.436630 0.015725 -0.129892 
0.294609 -0.040267 -0.047937 
0.235297 -0.001651 -0.078320 
-0.189731 -0.001265 -0.098453 
-0.441786 0.027490 -0.108836 
-0.226365 -0.057807 0.090688 
-0.275911 -0.071799 -0.077969 
-0.007927 -0.099884 0.011604 
-0.375408 -0.021984 0.032148 
-0.287539 0.056708 -0.091267 
0.440133 -0.096092 -0.063026 
-0.196829 -0.101241 -0.021451 
0.293116 0.017446 -0.072656 
-0.181342 -0.114327 -0.065087 
-0.288446 -0.032789 0.080527 
-0.003026 0.098913 0.012508 
0.423247 -0.064998 -0.061651 
0.105597 0.078770 -0.045980 
0.499889 0.098703 -0.053556 
0.288104 0.027346 0.045071 
0.077778 0.023482 0.156144 
-0.218446 0.062452 0.083563 
0.104715 -0.006604 0.203960 
-0.098848 -0.032084 -0.091999 
0.078236 0.080929 0.050088 
0.402459 0.034893 -0.017630 
-0.159868 0.096621 -0.031216 
-0.155132 -0.095992 -0.037862 
0.269435 -0.049548 -0.038100 
-0.286539 0.008487 0.089808 
0.058977 -0.013305 0.226241 
0.362466 -0.030952 -0.038218 
-0.253289 -0.046634 -0.099917 
0.056750 -0.084361 -0.047726 
0.492633 0.100098 -0.067715 
0.361310 0.006715 -0.068867 
-0.239742 -0.021681 0.111195 
-0.112508 -0.101331 -0.007729 
-0.130913 0.008310 -0.097022 
0.073315 -0.040149 0.123065 
0.039121 -0.070937 -0.067518 
-0.004678 -0.018972 0.204175 
0.094401 -0.010221 0.191618 
0.360586 0.030043 -0.038734 
-0.154038 0.097784 -0.069790 
-0.407632 0.042193 -0.069237 
0.118611 0.018610 -0.087839 
-0.382592 0.009540 -0.121785 
0.390195 -0.039076 -0.029437 
0.215476 0.066777 0.013058 
0.422811 -0.020076 -0.007184 
-0.041434 -0.015810 0.185828 
-0.287136 0.028316 0.084024 
-0.212373 -0.103284 -0.088862 
0.330611 0.017500 -0.067019 
0.199613 0.028235 0.081444 
0.445661 -0.097575 -0.051698 
-0.013253 0.007048 0.210354 
-0.171926 -0.124094 -0.072895 
-0.334301 0.017581 -0.119052 
-0.084058 0.007335 0.160890 
-0.155849 -0.120700 -0.077201 
-0.222200 -0.100999 -0.077170 
-0.258253 -0.082377 0.031432 
0.227785 -0.002003 0.081463 
0.165579 0.000756 -0.084978 
-0.193230 -0.060810 -0.086623 
-0.134341 0.007857 0.146604 
0.271811 -0.040199 -0.055884 
-0.227899 -0.021076 -0.102639 
0.075729 -0.015018 0.207184 
-0.168612 0.017980 0.139983 
0.484189 -0.112734 -0.050127 
-0.137975 -0.133094 -0.095578 
0.157667 -0.074932 0.033297 
0.270596 0.050921 -0.029774 
-0.256425 0.091209 0.003404 
0.086680 0.024641 0.144095 
-0.078901 -0.012212 0.162530 
-0.058107 -0.070832 -0.074294 
-0.463365 -0.016368 -0.127668 
-0.257516 0.067730 -0.086944 
-0.124938 -0.001785 -0.097686 
-0.190064 0.037311 0.123883 
-0.224803 -0.031478 0.114026 
-0.263142 0.078442 0.037504 
-0.154448 -0.130709 -0.095190 
0.252082 0.033757 -0.065278 
-0.040565 0.095158 -0.027930 
-0.427374 -0.011525 -0.026413 
0.056745 0.085860 0.043898 
-0.148301 0.096770 -0.023912 
-0.212792 -0.094565 0.026207 
0.088668 -0.027552 0.133937 
0.076393 0.069413 0.072304 
-0.145689 -0.012524 -0.095137 
-0.171462 0.113381 -0.092793 
0.026447 0.016254 0.213150 
0.170873 -0.077011 -0.007673 
-0.475950 0.000407 -0.110133 
-0.320077 -0.029952 -0.112708 
0.233590 0.008341 -0.078038 
0.128875 -0.071723 -0.048632 
0.282361 -0.038160 -0.056385 
0.285817 -0.004077 0.060243 
0.181182 -0.009962 0.095864 
-0.235050 0.097323 -0.009795 
0.173148 -0.032336 -0.076277 
0.349008 0.031902 -0.030312 
0.493917 0.057887 -0.056494 
0.024480 0.020550 -0.092607 
-0.384020 -0.036819 0.014642 
-0.063387 -0.042590 0.134297 
0.495786 -0.083786 -0.053377 
0.186220 -0.068446 0.031948 
0.440051 0.019455 -0.017547 
0.229336 -0.050292 -0.048359 
-0.005206 0.090801 0.045484 
0.506047 -0.114401 -0.063206 
-0.216965 -0.001905 0.124162 
0.099713 -0.000117 0.189482 
-0.251882 0.057976 -0.094402 
-0.083886 0.037474 0.137524 
-0.001374 -0.056940 0.115608 
0.416722 -0.045037 -0.022202 
-0.325276 -0.022637 0.064790 
-0.015187 -0.032566 0.154345 
0.420958 0.028931 -0.014201 
-0.124939 -0.042042 0.131983 
0.309006 0.038949 -0.040059 
0.088297 -0.091699 -0.018143 
0.092835 0.087977 0.023262 
0.197193 -0.070781 -0.007780 
-0.295389 -0.001187 0.085778 
0.196839 -0.069338 0.022367 
-0.426444 -0.022081 -0.035705 
0.115504 0.087905 0.002329 
0.176684 0.037961 0.081364 
-0.423615 0.018139 -0.028473 
-0.158416 -0.114520 -0.087530 
-0.458685 -0.009982 -0.136670 
0.440125 -0.040575 -0.023995 
-0.307538 0.048613 -0.098040 
-0.288284 -0.059540 -0.088980 
-0.406670 -0.027878 -0.006404 
-0.365682 0.047571 0.020317 
0.260351 0.031386 -0.065877 
0.104601 -0.078237 -0.047085 
-0.319091 -0.001769 0.072650 
-0.079448 0.081394 0.073139 
0.154164 -0.065652 0.052542 
0.097929 -0.038770 0.113294 
-0.204094 0.113812 -0.085186 
0.358554 -0.017933 0.020349 
-0.259809 0.018465 -0.108300 
0.427080 0.074136 -0.050739 
-0.186559 -0.031303 0.128983 
0.007738 -0.001204 0.224023 
-0.353443 0.056564 -0.081809 
0.260819 -0.055686 0.013614 
0.089617 0.011836 0.215337 
0.490080 0.071043 -0.063074 
0.379387 0.017243 0.011885 
-0.390296 0.019055 -0.119189 
-0.090356 -0.013343 0.155998 
0.177766 -0.051364 -0.059624 
0.237223 0.017739 0.073940 
0.018965 0.098618 0.002431 
-0.446964 -0.001308 -0.060584 
-0.378975 -0.037095 -0.106269 
-0.234307 -0.058825 0.085114 
-0.418114 0.036052 -0.060299 
-0.186617 -0.102606 -0.049404 
-0.096602 -0.076918 0.085853 
-0.327715 -0.002373 -0.119848 
-0.174057 -0.098357 -0.033898 
0.433089 0.082398 -0.057545 
0.372338 -0.011020 0.019481 
-0.269186 0.085582 -0.045620 
0.043079 0.020093 0.184491 
0.470526 -0.022447 -0.029934 
-0.140128 0.137751 -0.094943 
0.082305 0.014708 -0.095217 
0.029150 -0.003034 0.231223 
-0.356154 0.005557 -0.122607 
-0.088105 0.095595 0.032692 
0.110431 -0.032143 0.113246 
0.494613 -0.060097 -0.055843 
-0.146855 -0.087276 -0.068200 
-0.166331 0.038108 -0.088497 
-0.315821 -0.010103 -0.117843 
0.119501 -0.088129 0.002813 
0.485620 0.136211 -0.065618 
-0.143041 0.130684 -0.086263 
0.019891 -0.089469 0.043133 
0.499643 -0.103528 -0.065757 
-0.327258 -0.054381 -0.090628 
-0.407541 0.038072 -0.029561 
0.350325 0.031946 -0.018122 
0.322694 0.039269 -0.007334 
-0.070860 0.024094 -0.094697 
0.500723 -0.111393 -0.068602 
-0.156497 -0.012065 -0.095043 
0.101819 -0.088852 -0.024977 
-0.006066 0.085744 -0.048649 
-0.246300 -0.008326 -0.107722 
-0.258044 -0.091978 -0.036362 
0.021706 0.095461 0.022716 
-0.155085 0.095516 -0.048561 
0.172114 0.060770 -0.048599 
0.047808 0.018083 0.207137 
0.081863 -0.001508 -0.096440 
0.190856 -0.070128 -0.017578 
-0.227415 -0.074392 0.064287 
-0.132477 0.069563 -0.074291 
0.424032 -0.039024 -0.018294 
-0.182380 -0.013024 0.136200 
0.357446 -0.002249 -0.070670 
-0.045877 0.058669 0.113114 
-0.143335 -0.031905 0.138054 
0.077386 0.021013 0.163711 
0.005959 0.039184 0.143280 
-0.424630 0.027578 -0.048558 
-0.321693 0.077737 -0.019648 
0.430974 0.029746 -0.017812 
-0.361583 0.037732 0.034073 
0.156472 0.037937 0.088338 
0.290240 0.032862 -0.059235 
0.023384 0.008550 -0.095057 
0.079753 -0.025430 0.144874 
0.481354 -0.029431 -0.057856 
0.086409 0.013627 0.195851 
0.389786 -0.039305 -0.038604 
-0.046629 0.092651 0.042876 
-0.185989 0.091404 -0.086745 
-0.187315 -0.018807 -0.095332 
-0.178568 -0.102200 0.012547 
0.257539 -0.011845 -0.076645 
0.513766 0.131693 -0.061554 
0.086217 0.013430 0.188360 
0.032017 -0.084662 -0.048603 
0.409350 -0.049084 -0.029155 
0.160780 0.028496 -0.078492 
-0.347472 0.069815 -0.031804 
0.315042 -0.001390 -0.075543 
-0.266543 0.018387 0.098480 
0.434333 -0.078081 -0.043293 
-0.144781 0.052964 -0.082217 
-0.288819 0.075647 -0.059577 
0.413287 -0.054173 -0.057604 
0.233819 -0.021361 0.073018 
0.061138 0.086225 -0.036559 
0.442026 -0.069198 -0.036779 
-0.256282 0.082679 -0.068067 
-0.207000 -0.110395 -0.068859 
-0.124901 -0.027711 -0.092124 
-0.023626 0.081242 -0.057863 
-0.163271 0.094689 0.040988 
0.327635 -0.027327 -0.056923 
-0.153592 0.089940 -0.073558 
0.319640 -0.039544 0.000680 
-0.263817 0.090633 -0.018085 
-0.258237 0.091923 -0.007806 
0.440890 0.041282 -0.064954 
-0.459012 -0.017286 -0.130589 
-0.096133 -0.011881 -0.097131 
0.389500 0.029840 -0.010545 
0.213582 0.020002 0.081651 
0.028552 -0.070436 -0.069410 
0.099163 -0.051196 -0.078135 
0.120659 0.066645 -0.058703 
0.032246 -0.088694 -0.038171 
-0.408526 -0.010819 0.004711 
-0.368698 0.008440 0.040059 
-0.251514 -0.021742 0.105744 
0.244024 0.007744 0.074491 
0.344451 0.007678 -0.071594 
0.424862 0.064962 -0.040213 
-0.317625 0.059521 0.042611 
0.138801 0.007032 0.110984 
-0.100002 -0.095078 0.042859 
-0.314227 0.008327 0.074761 
0.117704 -0.074750 -0.048686 
-0.186186 0.051443 0.113078 
-0.186955 0.101763 -0.047686 
-0.105898 -0.059547 0.113531 
0.304735 -0.041177 -0.038165 
-0.255082 0.082221 0.033587 
0.094380 0.007825 0.188225 
0.172051 0.052950 0.065518 
0.007983 -0.001751 -0.095552 
-0.011823 -0.091698 -0.033948 
0.278918 -0.043525 0.032174 
-0.162625 -0.087673 0.062248 
-0.042414 -0.102017 0.002275 
0.107696 0.080385 0.041325 
0.496912 0.090403 -0.063143 
-0.259306 -0.022294 0.101811 
0.010349 -0.096996 -0.009702 
-0.414560 -0.027732 -0.115745 
0.261459 -0.011792 0.067350 
0.085905 0.016401 0.165231 
-0.342401 -0.058945 -0.078909 
0.249699 -0.039815 0.052155 
0.092319 -0.091989 0.011824 
-0.197584 -0.100372 -0.038807 
0.124792 -0.085317 -0.017595 
0.084781 -0.087327 0.034777 
0.219562 0.048475 0.052612 
0.452792 0.115142 -0.060697 
-0.426496 -0.019937 -0.125022 
-0.239065 0.087962 0.027039 
0.323904 -0.039270 -0.008619 
0.356262 -0.031438 -0.008497 
0.067333 -0.006687 0.237271 
-0.394473 -0.050760 -0.056566 
-0.355140 0.018473 0.046932 
-0.071308 -0.042441 0.133991 
0.199676 0.029242 -0.073174 
-0.091271 0.081245 -0.059084 
-0.322217 0.075694 0.005707 
-0.386611 0.028476 0.018846 
0.076485 -0.090697 -0.027635 
-0.256730 -0.051621 0.082163 
0.412403 -0.043278 -0.062525 
0.459447 0.078923 -0.067836 
-0.150233 0.095941 0.038756 
-0.249124 0.046287 0.091222 
0.031461 -0.020911 0.208431 
-0.105481 0.008718 0.152578 
0.422392 0.015028 -0.066158 
-0.096621 0.098982 0.012530 
0.251997 -0.012143 0.070637 
0.464265 -0.104802 -0.072905 
0.406026 0.007724 0.006643 
-0.356958 0.058141 0.011674 
0.456668 0.115633 -0.065616 
0.287180 0.039874 -0.048833 
0.070085 0.013263 0.229197 
-0.371744 -0.013049 -0.121595 
0.044367 -0.002255 -0.096628 
0.360774 0.031026 -0.027887 
-0.386336 -0.011549 0.026864 
-0.277251 -0.071608 0.043420 
-0.154424 0.080187 -0.076421 
-0.217558 0.099851 -0.047723 
0.078469 0.038200 -0.087516 
0.153740 -0.060351 -0.056218 
-0.050661 -0.066937 0.103484 
-0.189788 0.096636 0.020398 
-0.243542 0.095696 -0.017762 
-0.195867 0.122850 -0.086412 
0.440373 0.068115 -0.066754 
0.257647 -0.053420 -0.027717 
-0.012116 0.050367 0.126906 
0.123469 0.028016 0.109664 
0.456198 0.089282 -0.044867 
-0.441745 -0.010985 -0.134636 
-0.414354 0.000593 -0.001187 
0.128255 0.037605 0.099151 
0.118315 -0.085135 0.024788 
0.385524 0.035265 -0.026892 
-0.276386 0.070365 -0.077091 
0.478950 0.008745 -0.033269 
0.311955 0.029766 -0.057537 
-0.173481 -0.100127 -0.045974 
-0.109413 -0.084459 -0.057885 
0.039267 -0.075621 0.071568 
-0.098425 0.052649 0.122713 
-0.176146 0.049737 -0.086105 
-0.012591 -0.009836 0.212171 
0.055472 0.091315 -0.019998 
0.434280 -0.044791 -0.068084 
-0.071487 0.048475 -0.085359 
0.413239 -0.001138 0.004042 
0.322968 -0.020573 -0.065861 
0.166761 0.047322 -0.066793 
-0.291643 0.038141 -0.105068 
0.113923 -0.053672 -0.073676 
0.348867 -0.032563 -0.007999 
0.332426 -0.020278 -0.064681 
-0.015676 0.098949 0.012519 
0.104001 0.004699 0.208697 
-0.244764 0.088885 -0.066080 
0.365350 -0.028352 -0.048104 
0.111703 0.086372 0.022627 
-0.190993 0.124992 -0.078925 
0.006731 0.095805 -0.017929 
0.494869 -0.076075 -0.052932 
0.385495 0.008128 -0.066486 
0.445115 0.097303 -0.051812 
0.153271 -0.059149 0.062756 
-0.329179 -0.040401 -0.106854 
0.128003 -0.066011 0.061635 
0.023711 0.066457 -0.073330 
-0.457078 -0.018382 -0.086613 
0.075750 -0.088610 0.032400 
-0.388104 -0.024537 -0.116607 
-0.071506 -0.062016 -0.080257 
-0.387826 -0.054435 -0.046573 
-0.029907 -0.023887 0.174299 
0.055057 0.032836 0.142296 
0.456062 -0.107811 -0.052982 
0.329109 -0.010623 -0.071727 
0.021326 -0.085350 -0.048398 
-0.295424 -0.002203 -0.114354 
0.514376 0.137485 -0.065941 
0.105947 0.088894 0.005057 
0.308941 -0.020866 -0.068388 
0.198091 0.039343 -0.067112 
-0.197442 -0.094112 -0.091296 
0.187776 0.008806 0.094142 
-0.334274 -0.060771 0.031076 
0.054668 0.082265 0.054328 
-0.448446 -0.016114 -0.132929 
-0.398282 0.047311 -0.040458 
0.472591 -0.128328 -0.060100 
-0.149272 -0.125122 -0.083551 
-0.299411 0.057704 -0.087745 
0.465933 0.099513 -0.047019 
0.448345 -0.079897 -0.068646 
-0.368286 -0.030419 -0.114033 
-0.369039 -0.061955 -0.021192 
0.415144 0.055900 -0.038774 
-0.100728 -0.001178 0.154950 
0.301111 -0.001631 -0.076573 
-0.022374 0.095593 0.032752 
-0.184479 0.108196 -0.091868 
0.067350 -0.009713 0.233766 
-0.054046 -0.095620 -0.029603 
0.463234 -0.116086 -0.054612 
0.516069 0.141597 -0.061151 
-0.349730 0.008369 0.052651 
-0.247076 0.001439 -0.108419 
0.059219 -0.036595 0.134867 
-0.106843 0.099029 0.012584 
-0.229782 0.060297 0.081919 
-0.375317 0.057281 -0.058191 
-0.036236 -0.020128 0.181782 
-0.276805 0.083334 -0.045752 
0.243747 -0.002207 0.075176 
0.453123 -0.011645 -0.021600 
0.240585 0.041013 -0.059145 
0.379543 -0.025696 0.001212 
0.011433 0.092925 0.035693 
0.291954 -0.044454 -0.037941 
0.072167 0.085125 -0.038244 
0.350986 -0.021082 0.020427 
-0.000703 -0.093166 -0.027935 
-0.170327 -0.075292 0.083324 
-0.147975 0.089648 -0.065337 
-0.249067 0.008680 -0.108540 
0.516816 0.139245 -0.062703 
-0.338940 0.072597 -0.027929 
0.124492 -0.078495 -0.038274 
-0.315971 -0.057533 -0.087289 
0.480032 0.008678 -0.052746 
-0.276211 0.018450 -0.109123 
-0.312661 -0.076823 0.011922 
-0.211196 0.028453 0.120522 
-0.178478 -0.102168 -0.010230 
-0.064125 -0.088972 -0.048070 
-0.336114 -0.047874 -0.098719 
-0.095683 0.090096 0.049741 
0.273137 -0.050171 0.021241 
0.042268 0.014489 0.223337 
0.044854 -0.015750 0.222149 
0.474260 0.041223 -0.035433 
0.481770 0.039715 -0.057936 
0.120865 -0.038408 0.102548 
-0.333835 -0.013567 0.062308 
0.457846 -0.082628 -0.069432 
0.033281 0.038667 -0.087736 
0.349344 -0.002439 0.031603 
0.459377 0.036692 -0.030016 
-0.203341 -0.083449 -0.089820 
0.489532 0.031298 -0.046855 
0.500321 -0.131909 -0.073433 
0.469566 -0.001220 -0.027845 
0.137388 -0.050174 0.082584 
-0.000875 0.008723 -0.094670 
0.100391 0.017906 -0.091081 
0.370978 -0.032644 -0.028273 
0.008871 -0.069486 -0.072925 
-0.018589 -0.056199 -0.081231 
-0.395574 0.038686 -0.004402 
0.068549 0.084973 0.043059 
-0.134861 0.027961 -0.091822 
-0.269064 -0.022636 0.096735 
-0.183359 0.029475 -0.094500 
-0.273714 0.085782 0.010551 
-0.337592 0.057824 0.032339 
-0.218135 0.049132 0.101804 
-0.407733 -0.033526 -0.017098 
0.079243 -0.092462 0.010525 
0.011838 -0.033173 0.154423 
-0.296729 0.060380 0.052499 
-0.151046 -0.095462 -0.047444 
0.095981 0.017137 0.145908 
-0.048081 -0.101327 0.012515 
0.085435 -0.007473 0.232316 
-0.122139 0.099093 0.015133 
-0.075857 -0.101305 -0.007734 
0.205944 0.068534 0.013054 
0.292971 0.046582 -0.025984 
-0.089896 -0.061980 -0.080248 
0.390064 -0.001130 0.014947 
-0.394917 0.026912 0.011333 
0.292451 0.045960 0.012288 
-0.034148 0.091362 -0.038025 
-0.243892 -0.085194 0.034106 
0.161256 -0.051902 0.070121 
0.275372 -0.046841 -0.043302 
-0.064994 -0.093663 -0.035552 
0.247182 0.027543 0.063561 
-0.221940 0.093029 -0.083985 
-0.313820 0.018614 -0.116774 
-0.029156 0.097671 -0.017303 
-0.094342 -0.042358 0.132929 
0.210237 -0.053567 -0.048100 
-0.348272 -0.040132 -0.106793 
-0.314025 -0.021082 0.071686 
-0.238090 -0.011971 0.114136 
-0.113790 0.095552 0.033362 
-0.113672 -0.089127 -0.048279 
-0.024951 -0.063733 -0.078177 
-0.341434 -0.010909 0.058104 
0.367251 -0.027732 -0.000032 
0.077365 -0.019351 0.162213 
-0.102284 -0.010138 0.153211 
-0.137486 0.099373 0.014287 
0.165554 -0.077470 0.020685 
0.005587 0.097467 0.022153 
0.062123 -0.089029 0.032967 
-0.179467 0.059410 -0.084284 
0.067953 -0.000514 0.239845 
0.224875 -0.020850 -0.076331 
0.432501 -0.021063 -0.013066 
-0.357351 0.008353 0.047506 
-0.208690 -0.050677 -0.091815 
-0.148602 -0.122758 -0.088195 
-0.137762 0.061223 0.112422 
0.491203 -0.091245 -0.067427 
0.036316 0.060296 -0.076358 
0.002047 -0.043857 0.133943 
-0.268283 0.047184 -0.100397 
0.161848 -0.043327 0.080684 
0.198357 0.048062 -0.058001 
0.417831 0.056391 -0.056478 
-0.344222 -0.047806 -0.098073 
-0.231901 0.008718 0.117481 
-0.265408 0.057867 0.070191 
-0.434382 -0.011260 -0.132332 
0.387971 -0.031716 -0.010400 
0.258904 -0.020684 0.064738 
0.088492 -0.012179 0.184417 
0.119500 0.076727 0.044113 
-0.093018 -0.001722 0.157752 
-0.125371 0.088969 -0.047983 
-0.426715 -0.001839 -0.132519 
0.097362 -0.071087 -0.059487 
-0.234330 0.009284 -0.106977 
-0.244887 -0.083892 -0.076862 
-0.040315 0.098974 0.012521 
0.029293 0.022509 0.174372 
0.372662 0.024178 0.004310 
0.169170 0.048167 0.072859 
0.103470 -0.001860 -0.092922 
-0.341516 0.043823 -0.105846 
-0.448244 0.024989 -0.091995 
-0.292100 -0.081743 -0.047709 
0.145923 0.018669 0.104914 
-0.130361 0.084939 -0.057775 
0.480213 -0.011915 -0.054651 
-0.025715 -0.022228 0.181905 
0.144169 0.057385 0.069578 
0.170087 0.028215 -0.077374 
-0.200446 -0.120440 -0.086809 
0.169347 -0.061603 -0.048644 
0.458798 -0.112709 -0.070745 
-0.117042 0.026528 0.143483 
0.299173 -0.011507 0.053004 
-0.056888 -0.001574 -0.098035 
0.066252 -0.050335 0.109637 
-0.304011 0.080476 -0.027691 
-0.087727 -0.102385 0.012035 
0.354442 -0.030787 -0.038357 
0.286845 -0.040052 0.032803 
-0.437390 0.007056 -0.134566 
-0.429590 -0.032877 -0.103152 
-0.434828 0.017936 -0.052537 
0.506103 0.113533 -0.063751 
-0.212060 0.107507 -0.075645 
-0.095991 0.031995 0.142029 
0.190929 0.057845 0.051326 
-0.231059 -0.088735 0.032921 
0.120289 0.029781 -0.084608 
-0.177362 -0.104114 -0.090723 
0.369610 0.028816 -0.047211 
-0.284827 0.028360 -0.108166 
0.121436 0.072794 0.051431 
-0.194005 0.082903 0.060854 
0.339140 -0.030030 0.012060 
0.219689 -0.058848 -0.033196 
-0.311692 -0.011275 0.075928 
0.469867 0.060007 -0.037817 
0.474190 0.029257 -0.057483 
0.341023 -0.034239 -0.006849 
0.455414 0.118358 -0.059021 
-0.183914 -0.062121 -0.084184 
-0.426777 0.033976 -0.079651 
-0.263411 0.057179 -0.094236 
0.470769 -0.014062 -0.058210 
0.404700 0.046567 -0.036209 
0.156257 -0.079027 0.021605 
0.489044 0.084966 -0.066345 
-0.197493 0.104631 -0.055236 
0.162775 -0.051955 -0.063601 
0.444650 0.008419 -0.061643 
0.095067 -0.082852 0.041874 
0.470787 0.119477 -0.072055 
-0.354841 0.062007 -0.064895 
-0.061007 -0.033385 0.145717 
-0.427238 0.017911 -0.036320 
0.508626 -0.127976 -0.056492 
0.096648 -0.001933 0.234600 
0.068769 -0.001738 -0.096689 
0.340184 0.033730 -0.028956 
-0.176792 0.027360 0.134263 
-0.096870 0.019676 0.150113 
0.508262 -0.132178 -0.069818 
-0.001262 -0.008048 0.218206 
0.126521 0.018707 -0.086944 
-0.257804 -0.012300 0.105221 
0.249416 0.050956 -0.039427 
0.082676 -0.051310 0.101658 
0.480530 -0.032526 -0.037059 
-0.199637 0.047014 -0.092470 
-0.404355 -0.045625 -0.067624 
-0.338014 0.026673 -0.117038 
0.470040 0.107019 -0.048285 
0.266633 -0.021784 -0.072698 
0.379313 0.030885 -0.014849 
-0.203595 0.109505 -0.067243 
-0.299532 -0.076566 0.023051 
0.441770 0.057329 -0.032662 
-0.074456 0.092646 0.042853 
0.241484 -0.042572 0.052308 
0.137665 -0.083982 0.004862 
0.460784 0.118586 -0.054413 
0.399823 -0.023938 -0.064671 
-0.239971 -0.041292 0.100887 
-0.117878 -0.070756 0.096198 
-0.112443 -0.084937 0.069024 
0.305619 0.008293 0.049492 
0.068478 -0.077567 0.058812 
0.262762 0.020191 -0.073145 
-0.335559 0.064982 0.022523 
-0.310995 -0.001162 -0.117723 
0.036304 0.016680 0.214237 
0.472233 0.086982 -0.068322 
0.411756 0.025473 -0.064610 
-0.272491 0.055958 -0.094349 
0.090338 -0.036135 0.121120 
-0.341169 0.059454 -0.079134 
0.281709 -0.001037 -0.077458 
0.359352 -0.024484 0.011166 
-0.157842 0.090909 0.052520 
0.421676 0.046802 -0.062995 
0.436710 0.084990 -0.049659 
-0.305739 0.080852 -0.015953 
-0.176771 0.092511 0.043808 
-0.157793 -0.093315 0.049995 
0.072231 -0.028618 0.143046 
0.422054 -0.053242 -0.064341 
-0.128792 0.017827 0.145340 
-0.059281 -0.002316 0.179773 
-0.277399 -0.032039 0.087541 
-0.204578 0.019663 -0.099349 
0.187082 -0.055928 0.054252 
-0.303078 -0.082480 -0.026717 
-0.435103 0.006206 -0.041979 
-0.325289 -0.072656 0.012607 
0.500654 -0.113185 -0.053429 
0.339035 0.000954 -0.073795 
0.009043 0.022709 0.174668 
0.229198 -0.044584 -0.057958 
-0.113201 0.088972 -0.046805 
-0.025978 -0.037063 0.144298 
0.329462 -0.028545 0.022000 
-0.406112 0.020389 0.002229 
-0.332707 0.071053 0.010085 
-0.139232 -0.130429 -0.090730 
-0.075061 -0.019237 0.159204 
-0.256170 0.046490 -0.100111 
0.391631 0.033060 -0.016916 
-0.037559 -0.009760 -0.097004 
-0.386303 -0.012958 -0.121599 
-0.093271 -0.032446 0.141832 
0.458115 0.028732 -0.027557 
-0.112603 -0.011198 0.150493 
0.291238 -0.001267 -0.077107 
-0.097515 0.067412 -0.074826 
-0.317813 -0.051802 0.049459 
-0.175359 -0.082742 -0.082618 
-0.337809 0.069713 -0.048144 
0.098500 0.088037 -0.019773 
0.135375 -0.043569 0.091829 
-0.069583 -0.011888 -0.097163 
-0.398113 -0.043012 -0.017707 
0.053578 0.019930 0.184241 
-0.031462 0.006478 0.199505 
0.159506 -0.022300 0.098490 
0.116866 0.059146 -0.067842 
-0.095847 0.057854 0.115319 
0.087634 0.010556 0.224619 
-0.472221 -0.008752 -0.104763 
-0.196285 0.091339 0.037730 
-0.124281 0.077497 -0.066666 
-0.156376 0.137957 -0.099162 
0.381746 -0.027110 -0.056604 
-0.284690 0.045938 0.073903 
-0.336425 -0.070961 0.005231 
0.170192 0.017313 -0.080724 
0.507934 -0.123643 -0.067020 
-0.055732 0.008769 -0.097390 
-0.005191 0.031693 0.154376 
-0.256736 0.086296 -0.057500 
0.096946 0.065267 -0.066815 
0.158467 -0.064567 -0.048724 
0.498516 -0.092422 -0.062579 
0.021322 -0.091694 -0.027799 
-0.131464 0.077206 0.079796 
0.481340 0.080031 -0.067067 
-0.221810 -0.098877 -0.026734 
0.479690 -0.009375 -0.034000 
0.434959 0.075450 -0.063830 
0.069127 -0.018248 0.184110 
0.307351 -0.037902 0.021652 
-0.405514 -0.000848 0.010242 
-0.391040 0.000766 -0.123845 
0.519863 0.147490 -0.063186 
0.088631 -0.013362 0.165096 
-0.203413 -0.105665 -0.058228 
0.353543 0.023463 0.013378 
-0.376400 -0.057514 -0.059378 
-0.073625 -0.086561 0.060892 
0.015564 -0.094897 -0.015798 
0.139078 -0.011277 -0.087720 
0.381286 0.023589 0.002838 
0.489657 0.041210 -0.054540 
-0.033777 -0.030525 0.155712 
0.061463 -0.078444 -0.057097 
-0.471183 -0.001804 -0.096618 
-0.204911 -0.099782 0.013154 
-0.244342 0.082472 -0.077889 
0.452166 0.108999 -0.064335 
0.258707 0.018568 0.064490 
-0.366140 0.062454 -0.049759 
-0.016098 0.089109 0.052239 
-0.151127 -0.097059 -0.028103 
0.126635 -0.021311 0.111524 
0.248686 0.050912 0.033637 
-0.188393 0.066248 0.091107 
-0.165006 0.109243 -0.062725 
-0.415494 -0.029463 -0.025082 
0.199666 0.048030 0.061986 
-0.148990 -0.050847 0.122613 
0.116824 -0.055723 0.082865 
-0.400292 -0.009389 -0.124358 
-0.300690 0.077080 -0.048464 
-0.161663 -0.074890 -0.077901 
0.431350 -0.048743 -0.025640 
-0.222596 -0.093149 -0.085306 
-0.167977 0.056484 0.112920 
-0.312266 -0.063855 -0.078114 
0.067627 0.017832 0.207531 
-0.266875 0.065256 -0.087027 
0.083706 -0.059587 -0.074197 
0.454206 0.095651 -0.066905 
-0.237462 0.096879 -0.026099 
0.434612 -0.087955 -0.052169 
-0.256659 0.028209 0.099944 
0.464451 0.126426 -0.060032 
0.383522 0.008860 0.015991 
-0.266537 -0.084656 -0.059657 
0.148618 0.071829 -0.038747 
-0.457070 0.017821 -0.125978 
0.250535 -0.059461 0.002088 
0.431755 -0.021848 -0.067365 
-0.360749 -0.052079 -0.087937 
0.472648 0.041031 -0.060212 
-0.004172 0.093384 -0.028478 
-0.099456 0.071267 0.093589 
-0.165445 -0.082030 -0.078848 
-0.154641 -0.096042 0.042744 
-0.142711 -0.076865 0.084258 
-0.390952 0.009368 0.023527 
0.077506 0.089389 0.004929 
0.084315 -0.092752 -0.007448 
-0.299812 -0.023476 -0.112149 
-0.367782 0.028483 0.034898 
0.122875 0.017984 0.116460 
0.269457 0.027801 0.053393 
-0.207145 -0.099787 -0.039904 
-0.304235 -0.079123 -0.045941 
0.490064 0.051917 -0.043874 
-0.213336 0.074853 0.065915 
0.432045 -0.063144 -0.066448 
0.181145 0.073517 0.011814 
-0.371018 0.053629 -0.078131 
-0.343948 0.055120 -0.088038 
0.520166 0.147605 -0.064578 
0.044292 -0.020034 0.209794 
-0.245225 -0.091651 -0.055406 
0.089052 -0.044118 0.110568 
-0.185549 -0.101916 -0.014820 
0.505874 0.137415 -0.058734 
-0.153673 -0.097650 -0.067655 
0.410556 0.027817 -0.010464 
-0.181749 -0.001746 0.137660 
0.307289 0.042265 -0.029059 
0.472218 -0.059973 -0.067525 
-0.286668 -0.068184 -0.078763 
0.328025 0.035556 0.002410 
-0.016811 0.057391 -0.080122 
0.452879 -0.003676 -0.060264 
0.415771 -0.001044 -0.067795 
-0.297164 -0.082616 -0.036924 
-0.156020 0.099038 -0.060470 
-0.145765 -0.131477 -0.086775 
0.059528 -0.020620 0.182544 
0.350625 0.015965 0.023934 
0.107587 0.049732 0.095160 
-0.269268 0.046309 0.081585 
0.212699 -0.044863 -0.060591 
0.402902 0.034820 -0.058113 
0.225805 -0.038869 0.062193 
0.019133 0.011884 0.220345 
-0.018251 -0.043803 0.134053 
0.452918 0.108083 -0.052586 
-0.474294 0.004845 -0.126997 
0.357866 0.005916 0.026835 
0.209610 0.068007 0.003935 
-0.417537 -0.010974 -0.008317 
0.458766 -0.095138 -0.070739 
0.106209 0.058646 -0.071262 
0.510906 -0.137688 -0.060703 
0.209389 -0.010646 0.086144 
0.390065 -0.012221 -0.066753 
-0.242238 0.048384 -0.098209 
0.434168 -0.014146 -0.066084 
-0.357138 -0.020238 0.045852 
0.029071 -0.040655 -0.085596 
0.500202 0.109366 -0.052173 
-0.316723 0.077496 0.004442 
0.350901 -0.024153 -0.057207 
-0.073615 0.006123 0.167951 
0.248924 -0.040213 -0.059611 
-0.124224 0.098353 0.022936 
-0.042603 -0.030238 0.154402 
-0.113865 -0.011796 -0.097026 
0.430248 0.057490 -0.032558 
0.495045 0.082747 -0.062811 
0.248302 0.041396 -0.057135 
0.147110 -0.047662 0.081646 
0.136480 0.038257 -0.078428 
-0.070214 0.018023 -0.096280 
-0.135208 -0.062285 -0.078558 
0.254805 0.045518 -0.048771 
0.115928 0.028244 0.114129 
0.471139 -0.044911 -0.065220 
-0.198102 0.115434 -0.090573 
0.287423 -0.019821 -0.072036 
0.472352 -0.052455 -0.066489 
0.218633 0.044461 -0.057804 
-0.400247 -0.027727 -0.114832 
-0.278167 0.087519 -0.008752 
-0.335052 0.050707 -0.097226 
0.347685 -0.027950 0.010468 
0.392853 0.039678 -0.037671 
-0.001793 -0.092110 0.041320 
-0.225677 -0.097156 -0.049947 
0.208068 0.037961 0.070325 
-0.233476 -0.030423 0.110538 
0.352504 0.027279 -0.049327 
0.473629 0.131594 -0.068016 
0.095511 0.038978 0.114598 
-0.340020 0.048088 0.040956 
0.180787 0.070512 -0.018728 
0.169688 -0.067885 0.041866 
-0.229922 -0.097435 0.001999 
0.091979 -0.087843 0.030773 
-0.336039 -0.001700 0.062362 
0.092617 -0.009254 -0.094217 
-0.353195 0.027038 -0.116437 
0.050128 -0.021778 0.188544 
-0.421811 -0.001207 -0.013025 
0.273707 0.028031 -0.066538 
0.368814 -0.003593 -0.068631 
-0.146942 -0.041253 0.131368 
0.392332 0.026700 -0.059326 
0.480553 0.119147 -0.050425 
-0.253762 0.093076 -0.017853 
-0.011088 -0.022415 -0.092170 
-0.347833 -0.070709 -0.027358 
0.010786 -0.070594 0.090212 
0.128015 0.037487 -0.080216 
0.239979 -0.042845 -0.058201 
0.487914 0.128096 -0.053727 
-0.473821 -0.008286 -0.116852 
0.009516 0.080508 -0.057486 
-0.171880 0.068706 -0.081028 
-0.411259 -0.001039 -0.128281 
-0.286855 -0.084423 -0.041446 
-0.166431 -0.092744 -0.081061 
-0.287103 0.005959 -0.112258 
-0.060337 -0.052281 -0.084829 
-0.060388 -0.021959 -0.094949 
0.244349 0.026627 -0.072481 
0.096459 0.009192 0.216085 
0.028211 -0.078681 -0.059738 
-0.316173 0.041318 -0.106209 
-0.200603 0.085816 0.050635 
-0.174493 0.129231 -0.097939 
-0.385702 0.037818 0.010248 
-0.148259 -0.135519 -0.089679 
0.337626 -0.025757 0.021413 
-0.386224 -0.055171 -0.038832 
0.397118 -0.042121 -0.048157 
-0.036225 -0.099004 -0.017748 
-0.448939 -0.022800 -0.079311 
0.090450 0.074134 0.058743 
0.187189 0.037340 0.078444 
0.480985 -0.095037 -0.071169 
-0.052173 -0.009996 0.182783 
-0.320395 -0.079017 -0.026966 
0.332863 -0.020162 0.030768 
0.103193 0.008539 0.143068 
0.113042 0.018390 0.124151 
-0.327381 0.018398 0.064824 
0.066757 -0.061784 -0.073858 
0.510738 -0.125293 -0.060583 
-0.055964 -0.074786 0.087454 
-0.347813 0.028514 0.047860 
-0.126145 -0.011900 -0.096605 
0.400977 -0.031336 -0.008718 
-0.126501 -0.099034 0.032622 
-0.071017 -0.004145 0.170979 
-0.358076 -0.031133 0.040550 
0.331706 -0.036416 -0.027851 
-0.158281 0.142113 -0.095791 
-0.154302 0.078598 0.078435 
0.032806 -0.028815 0.162866 
0.035414 0.017576 -0.094056 
-0.362790 0.018858 -0.119237 
0.106810 0.007855 -0.091600 
-0.149303 0.018392 0.142480 
0.213842 0.054203 -0.043385 
0.423647 -0.068902 -0.041677 
-0.286741 0.055925 0.062444 
0.085443 0.007342 0.232533 
0.098793 0.026201 -0.089032 
-0.345381 0.068114 -0.048391 
-0.251111 -0.062234 -0.093177 
0.488874 -0.031631 -0.053379 
0.491723 -0.037027 -0.047437 
-0.026653 0.082034 0.071182 
0.512790 -0.139336 -0.065750 
0.026618 0.031185 0.153294 
0.086250 -0.018663 0.152788 
-0.476100 0.006664 -0.116577 
-0.246633 -0.053007 -0.097419 
0.146654 -0.039009 0.091483 
0.337349 -0.035715 -0.017536 
-0.437644 -0.026989 -0.067840 
0.147218 0.027694 -0.081101 
0.201270 -0.041236 -0.065661 
0.489849 0.107087 -0.049104 
0.506152 0.111752 -0.057622 
0.097973 0.007741 0.154198 
0.393730 -0.012383 0.009709 
-0.226205 0.073640 -0.088761 
0.381357 0.000103 0.018721 
-0.234670 -0.082831 -0.084275 
-0.091763 0.058468 -0.080585 
0.486422 0.019807 -0.046666 
0.050143 -0.025116 0.166368 
-0.415059 -0.039560 -0.086593 
0.011567 0.014401 0.212601 
0.101704 0.002967 0.231327 
0.463160 -0.098672 -0.048397 
0.059802 0.090338 0.009972 
-0.451915 -0.026020 -0.102266 
-0.156100 -0.099509 -0.057809 
0.140448 -0.078686 -0.029031 
-0.264304 0.028219 0.096085 
-0.273656 0.059796 0.064059 
-0.382350 0.047162 -0.088330 
0.297299 -0.046931 -0.017904 
0.047859 0.039672 0.132045 
-0.035941 -0.059031 0.114279 
-0.344509 -0.042070 0.042663 
0.362585 0.016390 0.018809 
-0.160187 -0.136997 -0.088903 
-0.151189 0.122589 -0.079328 
0.487305 0.069857 -0.044428 
0.470479 0.005907 -0.028546 
-0.418494 0.009321 -0.009775 
0.209797 -0.034408 0.072029 
0.272191 0.018974 -0.072864 
-0.307409 -0.050871 -0.096772 
0.181771 -0.001508 0.096941 
-0.040228 0.086647 -0.048160 
-0.079306 -0.081024 0.074720 
-0.287995 0.071442 -0.069637 
-0.356376 0.036947 -0.109892 
-0.276255 -0.041503 0.081507 
-0.349168 0.043082 -0.105516 
0.011740 -0.009974 0.222791 
-0.024017 0.037897 -0.088156 
0.156869 0.009507 -0.085190 
0.483410 0.099789 -0.069377 
0.356929 0.022633 -0.057482 
0.257388 -0.055344 -0.017553 
0.169216 -0.059567 0.055747 
0.363733 -0.031939 -0.028172 
0.160057 0.038956 -0.073731 
0.210023 0.057823 0.042652 
0.144264 -0.082590 0.011897 
-0.071764 -0.052318 -0.084851 
-0.265379 -0.043933 -0.101335 
-0.406630 0.025077 -0.116827 
0.510827 0.131668 -0.067936 
0.154612 0.074716 -0.026539 
0.111269 -0.083295 0.034591 
0.049428 -0.060900 0.097390 
0.055478 0.006645 0.237328 
-0.280261 0.084392 -0.038210 
-0.193172 -0.107016 -0.057639 
0.074491 0.074824 -0.058132 
0.134294 -0.002376 0.113516 
-0.136143 -0.014238 0.145770 
0.050287 -0.008431 0.233477 
0.088133 0.066383 -0.067138 
0.205654 -0.066390 -0.017637 
-0.304068 0.008394 0.080328 
-0.387103 -0.041021 -0.098847 
-0.002599 0.038456 0.144278 
0.098495 0.081025 0.042927 
0.449838 -0.039388 -0.067312 
0.488817 -0.071080 -0.047176 
-0.334819 -0.074746 -0.029736 
-0.140591 -0.069825 -0.075852 
-0.295094 -0.060899 0.050540 
-0.328469 0.061062 -0.077854 
0.084178 0.074471 -0.057704 
-0.159192 -0.109600 -0.069426 
0.485758 0.107406 -0.070744 
0.096740 -0.001656 0.162446 
-0.114325 -0.023613 0.145257 
-0.079899 -0.032334 0.143700 
-0.026497 -0.087288 -0.047106 
-0.329506 -0.067435 0.023249 
0.017332 -0.081991 0.064407 
-0.177047 -0.136459 -0.092985 
-0.195220 0.089556 0.044009 
-0.300669 -0.068804 0.037503 
0.500317 0.101908 -0.064383 
0.043044 -0.078483 -0.058183 
0.337111 0.008585 -0.072038 
-0.223037 0.099181 -0.076612 
0.037299 0.007107 0.231031 
-0.255089 -0.031329 -0.104261 
0.090401 -0.092525 0.004476 
-0.080555 -0.022591 0.153225 
0.032935 -0.081644 0.060395 
-0.120453 -0.084848 -0.058116 
-0.207110 -0.023574 0.124747 
0.066860 0.006976 0.237221 
0.482020 0.091186 -0.068350 
0.111851 0.084896 -0.026392 
0.099947 0.047219 0.101558 
0.024554 -0.001798 -0.095864 
-0.297198 -0.073443 0.031052 
0.360541 0.030243 -0.014369 
0.494406 0.136310 -0.059595 
-0.336438 0.067486 -0.058056 
-0.160099 0.008578 -0.096781 
0.420712 -0.000715 -0.000891 
-0.222278 0.086006 0.039282 
-0.358314 -0.064832 -0.050364 
-0.024750 -0.017170 0.195601 
-0.151635 -0.024452 -0.091393 
0.055525 0.075125 -0.058290 
0.306821 -0.011168 0.049359 
-0.154793 0.059982 0.111994 
0.442642 -0.018674 -0.064843 
0.421736 -0.042590 -0.066498 
0.092075 -0.002878 0.235761 
0.092793 -0.000298 0.235995 
0.088032 -0.001651 0.237124 
0.080524 -0.000273 0.238134 
0.085968 -0.003677 0.236616 
0.080363 0.003029 0.237472 
0.072710 0.001692 0.239042 
0.072878 -0.001862 0.239051 
0.072395 0.005278 0.237642 
0.064275 0.003519 0.239438 
0.061731 0.001108 0.240086 
0.060851 0.007000 0.237512 
0.057907 0.003953 0.239157 
0.053319 0.003210 0.238652 
0.056019 0.000650 0.239676 
0.048513 0.005570 0.236479 
0.047309 0.002472 0.237222 
0.050859 -0.000620 0.238293 
0.067827 -0.003798 0.239046 
0.072211 -0.005063 0.237730 
0.060738 -0.001908 0.240011 
0.060970 -0.005204 0.238589 
0.055193 -0.002819 0.238788 
0.085532 0.004669 0.235392 
0.093324 0.002398 0.234835 
0.093365 0.004996 0.232445 
0.077698 0.006890 0.235438 
0.072710 0.008440 0.235089 
0.068705 0.010225 0.233967 
0.060778 0.009721 0.235120 
0.047586 0.008248 0.234113 
0.052793 0.009321 0.234475 
0.055817 0.012160 0.231420 
0.043596 0.009787 0.231005 
0.042716 0.005995 0.233946 
0.105874 -0.000824 0.231565 
0.108844 0.000532 0.229863 
0.099986 0.000945 0.233393 
0.038892 0.002389 0.233698 
0.033006 0.002163 0.231746 
0.035751 -0.002135 0.232952 
0.026797 0.001840 0.230109 
0.030501 0.006323 0.229358 
0.016944 0.001903 0.227426 
0.023081 -0.002145 0.229770 
0.108915 -0.003296 0.228407 
0.102456 -0.003130 0.231719 
0.095244 -0.004453 0.233469 
0.098020 -0.006060 0.230332 
0.083191 -0.005717 0.235238 
0.090487 -0.005238 0.234340 
0.078124 -0.008195 0.232860 
0.073227 -0.007162 0.235580 
0.048172 -0.004596 0.235782 
0.054893 -0.006249 0.236748 
0.039473 -0.005910 0.232875 
0.043640 -0.009269 0.231324 
0.029539 -0.011301 0.227938 
0.030905 -0.007337 0.230435 
0.024210 -0.006031 0.229650 
0.023995 -0.009760 0.228119 
0.020516 -0.006550 0.228499 
0.061009 -0.007876 0.236600 
0.056100 -0.009129 0.234101 
0.075824 0.012535 0.228176 
0.071051 0.015050 0.224060 
0.061440 0.015881 0.223672 
0.062532 0.014279 0.228156 
0.052490 0.014480 0.226574 
0.052844 0.016181 0.222346 
0.047116 0.015492 0.222832 
0.108801 0.002383 0.228070 
0.112365 0.001705 0.224310 
0.100463 0.005001 0.228665 
0.098369 0.007085 0.225048 
0.090330 0.008034 0.228950 
0.080474 0.012753 0.224214 
0.039767 0.011451 0.227470 
0.033853 0.010288 0.227021 
0.036896 0.013513 0.223318 
0.016374 0.008174 0.223693 
0.024821 0.009399 0.225236 
0.028324 0.012565 0.222254 
0.012670 0.009911 0.220378 
0.011106 0.006148 0.223166 
0.120482 -0.001802 0.225687 
0.117049 -0.000667 0.224602 
0.114213 -0.000186 0.226673 
0.011280 0.002156 0.225159 
0.004701 0.003389 0.221896 
0.001356 0.000093 0.221297 
0.000584 0.006652 0.218351 
-0.002241 0.003110 0.219171 
-0.009369 0.002586 0.215237 
-0.004525 -0.000640 0.218644 
0.116912 -0.002800 0.225243 
0.112945 -0.003452 0.225809 
0.011879 -0.005638 0.224932 
0.016769 -0.008916 0.226014 
0.003717 -0.004758 0.221750 
0.005254 -0.009062 0.220454 
-0.000999 -0.003221 0.220059 
0.103901 -0.008512 0.221423 
0.105035 -0.006747 0.225240 
0.099683 -0.007659 0.226543 
0.093370 -0.009790 0.223831 
0.092101 -0.008414 0.228386 
0.080020 -0.009664 0.229362 
0.083930 -0.010617 0.225248 
0.073731 -0.011670 0.226305 
0.065275 -0.011332 0.231054 
0.061530 -0.010263 0.233425 
0.054067 -0.011519 0.229808 
0.047719 -0.012204 0.228208 
0.052057 -0.014419 0.224147 
0.032659 -0.013800 0.225789 
0.035325 -0.016104 0.222395 
0.041217 -0.012966 0.226845 
0.026281 -0.015575 0.223302 
0.019951 -0.011093 0.226258 
0.016236 -0.012235 0.223454 
0.075160 0.015428 0.219449 
0.085103 0.012566 0.219849 
0.079475 0.015265 0.214512 
0.070972 0.016861 0.214929 
0.068190 0.016479 0.219390 
0.062500 0.017286 0.217436 
0.056476 0.017182 0.218684 
0.053271 0.017924 0.211846 
0.049204 0.017224 0.216716 
0.045176 0.016386 0.218853 
0.043909 0.017169 0.214403 
0.040219 0.015798 0.219023 
0.032267 0.015013 0.218544 
0.021993 0.014574 0.216441 
0.018604 0.015841 0.211956 
0.014693 0.013091 0.216687 
0.110967 0.002565 0.221221 
0.105416 0.005259 0.215695 
0.098826 0.007870 0.221077 
0.102053 0.006937 0.217586 
0.092223 0.010173 0.220315 
0.008869 0.011490 0.216562 
-0.004156 0.009257 0.213331 
0.002974 0.010150 0.215724 
0.005837 0.013304 0.212089 
-0.005940 0.005893 0.215534 
0.114861 -0.000238 0.221246 
0.117606 -0.002474 0.223618 
-0.017177 0.002154 0.210714 
-0.012158 -0.001636 0.214339 
-0.025913 0.002180 0.206188 
-0.021637 0.005363 0.206936 
0.114306 -0.003434 0.220028 
0.111551 -0.003575 0.213785 
0.111684 -0.005231 0.217479 
-0.008783 -0.005282 0.215723 
-0.017098 -0.006236 0.211273 
-0.018815 -0.009394 0.209419 
-0.021655 -0.006979 0.208528 
0.108965 -0.006991 0.217868 
0.108618 -0.006849 0.213479 
0.104929 -0.008692 0.217713 
0.099574 -0.010261 0.216815 
0.099841 -0.010393 0.212742 
0.093978 -0.010759 0.219274 
0.084900 -0.011569 0.220974 
0.079322 -0.013277 0.215528 
0.073966 -0.012997 0.221303 
0.063977 -0.013619 0.223947 
0.056727 -0.015721 0.219728 
0.064853 -0.015473 0.216382 
0.050133 -0.016995 0.218023 
0.017561 -0.015106 0.220803 
0.022078 -0.016277 0.221257 
0.007397 -0.013038 0.218151 
0.009176 -0.016388 0.214615 
0.012984 -0.014118 0.219438 
-0.003939 -0.014916 0.211617 
0.001468 -0.012258 0.216432 
-0.007484 -0.012487 0.212657 
0.051265 -0.018461 0.212693 
0.044505 -0.018258 0.216174 
0.036957 -0.018078 0.218107 
0.029159 -0.018159 0.218392 
0.034351 -0.019670 0.213841 
0.023243 -0.018116 0.217579 
0.083990 0.014451 0.209698 
0.077483 0.016189 0.209950 
0.072524 0.017212 0.207337 
0.062763 0.018098 0.208369 
0.054929 0.018425 0.202165 
0.040550 0.017649 0.209568 
0.040039 0.018101 0.204625 
0.030683 0.017359 0.209053 
0.030226 0.017953 0.204270 
0.021636 0.017076 0.208181 
0.014681 0.016308 0.208328 
0.011013 0.016955 0.203673 
0.009590 0.015643 0.208160 
0.002070 0.014961 0.206581 
0.002241 0.016480 0.202170 
-0.003587 0.015565 0.202429 
0.100391 0.007411 0.212185 
0.099683 0.007418 0.207137 
0.096144 0.009524 0.211226 
0.091627 0.011537 0.210633 
-0.011052 0.011310 0.206643 
-0.022582 0.008222 0.204058 
-0.017029 0.009766 0.205504 
-0.014361 0.013112 0.201870 
-0.026644 0.009436 0.199935 
-0.027350 0.005923 0.203139 
0.113146 -0.001628 0.216482 
0.111324 0.000596 0.215492 
0.107331 0.001470 0.208919 
-0.030930 0.002952 0.202317 
-0.028239 -0.000625 0.205107 
-0.042081 0.002861 0.192604 
-0.035553 -0.000982 0.199132 
0.109327 -0.005524 0.211512 
0.107690 -0.003911 0.206774 
-0.028052 -0.004177 0.204656 
-0.023294 -0.009069 0.206673 
0.103118 -0.008480 0.206425 
0.089669 -0.012538 0.207481 
0.089541 -0.012243 0.212657 
0.081748 -0.014034 0.205938 
0.068702 -0.015749 0.211463 
0.071206 -0.016203 0.204910 
0.053769 -0.019402 0.206759 
-0.015703 -0.012977 0.208161 
-0.009926 -0.015677 0.207870 
-0.020510 -0.014232 0.203990 
-0.021532 -0.011888 0.206158 
-0.025036 -0.011878 0.203096 
0.060092 -0.018612 0.204153 
0.050409 -0.020754 0.200969 
0.043334 -0.021074 0.203669 
0.037900 -0.020972 0.207340 
0.026007 -0.020625 0.209530 
0.024776 -0.019701 0.213204 
0.021585 -0.021363 0.204748 
0.015771 -0.019527 0.210243 
0.010369 -0.018852 0.210122 
0.007614 -0.020951 0.202477 
0.002132 -0.017946 0.209144 
0.003094 -0.019858 0.204637 
-0.005374 -0.017007 0.208108 
-0.009547 -0.018006 0.204002 
0.089333 0.012811 0.202555 
0.083753 0.014800 0.204270 
0.077310 0.016518 0.201232 
0.072364 0.017478 0.197282 
0.062233 0.018520 0.194581 
0.055094 0.019042 0.191173 
0.046190 0.019088 0.192047 
0.024560 0.018546 0.196937 
0.013497 0.018221 0.196716 
0.005725 0.017623 0.198481 
-0.000794 0.017698 0.195704 
-0.006455 0.016994 0.195986 
-0.010831 0.015717 0.197972 
-0.016155 0.014953 0.197057 
-0.023002 0.015027 0.193119 
0.101829 0.004923 0.202936 
0.097380 0.007988 0.199820 
0.092602 0.011060 0.198933 
-0.033781 0.010306 0.193339 
0.104848 0.001895 0.203984 
0.106846 -0.001183 0.205116 
-0.045691 -0.001353 0.190596 
0.105293 -0.003833 0.201798 
0.102747 -0.006048 0.198303 
-0.038791 -0.005474 0.195896 
0.100499 -0.008337 0.198975 
0.099491 -0.007564 0.193801 
0.094538 -0.010866 0.196760 
0.087434 -0.013074 0.199814 
0.082164 -0.014235 0.200278 
0.082617 -0.014272 0.194778 
0.076624 -0.015375 0.200818 
0.061500 -0.018991 0.198186 
-0.032836 -0.012543 0.196148 
-0.030567 -0.015897 0.193683 
-0.027602 -0.013572 0.198708 
-0.038251 -0.012497 0.192281 
0.055709 -0.020388 0.195327 
0.043701 -0.022269 0.191115 
0.033907 -0.022297 0.196738 
0.022734 -0.022497 0.197159 
-0.004030 -0.020562 0.199571 
-0.016701 -0.018863 0.197389 
0.081893 0.015273 0.192775 
0.081714 0.015409 0.185176 
0.077136 0.016682 0.189877 
0.072228 0.017702 0.189631 
0.067066 0.018678 0.186153 
0.061880 0.019187 0.186258 
0.032624 0.019157 0.191561 
0.022356 0.019340 0.189526 
0.009197 0.018821 0.191698 
0.014002 0.020108 0.184460 
-0.005956 0.018679 0.189029 
-0.016678 0.018390 0.186826 
-0.019530 0.016740 0.190928 
-0.027182 0.016433 0.186909 
-0.032563 0.018146 0.179422 
-0.033816 0.016117 0.183698 
-0.036273 0.013813 0.186347 
0.098513 0.005804 0.195327 
0.094034 0.009375 0.193861 
0.090523 0.011195 0.191831 
0.090252 0.010976 0.186842 
-0.045327 0.011231 0.183193 
-0.046873 0.007322 0.186057 
0.103364 -0.000706 0.197397 
0.101313 0.002473 0.196071 
0.097652 0.003675 0.188237 
-0.050941 0.003067 0.185233 
-0.056570 0.002564 0.181091 
-0.053811 -0.001666 0.183926 
-0.062220 0.001419 0.177434 
-0.059683 0.006201 0.177567 
0.101990 -0.003313 0.194086 
0.099961 -0.005718 0.191566 
0.098340 -0.003314 0.186041 
-0.050616 -0.005827 0.186010 
-0.055903 -0.006253 0.181630 
0.096038 -0.008591 0.188807 
0.092555 -0.009912 0.184173 
0.087985 -0.012637 0.189420 
0.080620 -0.014959 0.186515 
0.083866 -0.014000 0.184379 
0.077596 -0.015582 0.192341 
0.069506 -0.017541 0.192451 
-0.045615 -0.013096 0.185646 
0.038981 -0.023265 0.185304 
0.028131 -0.023213 0.190426 
0.012876 -0.023154 0.192366 
-0.003208 -0.022236 0.192717 
0.005624 -0.024081 0.186445 
-0.018673 -0.021022 0.189792 
-0.014491 -0.022114 0.188241 
-0.024094 -0.019806 0.190013 
-0.029428 -0.018661 0.189620 
-0.034601 -0.017442 0.188596 
0.081519 0.016083 0.177166 
0.076935 0.017211 0.181584 
0.071997 0.018429 0.181451 
0.071718 0.019958 0.173460 
0.066610 0.019915 0.178512 
0.061071 0.020568 0.178488 
0.059748 0.021851 0.173358 
0.052615 0.020937 0.179101 
0.040796 0.021095 0.179444 
0.040824 0.022338 0.174388 
0.024863 0.021199 0.179468 
0.005251 0.021242 0.179428 
-0.008721 0.022537 0.174265 
-0.007829 0.020363 0.181674 
-0.017018 0.021326 0.176392 
-0.020098 0.019626 0.180994 
-0.029427 0.020446 0.174508 
-0.024840 0.019065 0.180722 
-0.040114 0.017174 0.177257 
-0.045695 0.017975 0.172677 
0.092529 0.008591 0.181116 
0.089419 0.011546 0.179195 
-0.052106 0.012788 0.176807 
-0.063825 0.008664 0.173314 
-0.058114 0.010768 0.175359 
-0.056387 0.014959 0.171734 
-0.071283 0.010357 0.167297 
-0.066652 0.004963 0.173263 
0.095730 0.004516 0.182656 
0.097562 0.000425 0.183653 
0.094249 0.006036 0.177335 
-0.070263 0.000952 0.171669 
-0.064982 -0.003189 0.175551 
0.096488 -0.003183 0.180078 
0.095622 -0.003441 0.173672 
0.094673 -0.006688 0.177029 
-0.061288 -0.006846 0.177263 
-0.057303 -0.010498 0.178347 
-0.068804 -0.008502 0.171131 
0.092498 -0.009362 0.177858 
0.089191 -0.011691 0.179809 
0.088141 -0.012505 0.175302 
0.077388 -0.016453 0.178952 
0.076411 -0.017367 0.173446 
0.070205 -0.018978 0.174534 
-0.053047 -0.013834 0.178774 
-0.058147 -0.014481 0.174214 
0.058185 -0.021755 0.175375 
0.052573 -0.021866 0.183077 
0.042372 -0.023573 0.180387 
0.032205 -0.024182 0.182701 
0.031430 -0.025720 0.175548 
0.021447 -0.025526 0.179331 
0.022032 -0.026789 0.173997 
0.006167 -0.027720 0.172101 
0.009688 -0.025531 0.180613 
0.002587 -0.026304 0.176668 
-0.010596 -0.023932 0.182146 
-0.021281 -0.024679 0.175464 
-0.031029 -0.021255 0.182018 
-0.037684 -0.022582 0.174399 
-0.047258 -0.019446 0.175266 
0.085856 0.014980 0.170329 
0.081572 0.017540 0.169657 
0.081782 0.018945 0.164472 
0.076918 0.019584 0.168924 
0.072238 0.021246 0.168017 
0.061856 0.024191 0.164478 
0.066802 0.025903 0.157007 
0.043262 0.023751 0.169268 
0.056001 0.023755 0.167534 
0.029051 0.024151 0.169214 
0.018600 0.024472 0.169180 
0.027269 0.026228 0.163901 
0.005359 0.024599 0.169470 
0.013452 0.026682 0.164375 
-0.007226 0.024320 0.169234 
-0.001895 0.026652 0.164370 
-0.018859 0.023757 0.168535 
-0.020506 0.025483 0.163392 
-0.030153 0.022999 0.167024 
-0.037173 0.020282 0.171381 
-0.038869 0.023468 0.163200 
-0.044824 0.020978 0.166697 
-0.050075 0.020551 0.165970 
-0.055413 0.019704 0.165480 
-0.059453 0.017627 0.166798 
-0.061614 0.020542 0.162140 
-0.064714 0.017316 0.164967 
-0.071605 0.014655 0.163982 
0.092417 0.008809 0.173276 
0.089595 0.011966 0.171193 
0.089687 0.013133 0.166029 
-0.079230 0.011467 0.161787 
-0.078840 0.006758 0.164255 
0.094845 0.004732 0.171325 
0.095989 -0.000057 0.169411 
0.095765 0.003804 0.164802 
-0.083447 0.002393 0.162486 
-0.078110 0.001825 0.165983 
-0.076872 -0.003226 0.166948 
0.095554 -0.004366 0.167649 
0.095492 -0.006141 0.163008 
-0.080968 -0.007707 0.163281 
-0.075640 -0.008037 0.166653 
-0.074451 -0.012270 0.165371 
0.091637 -0.010328 0.168561 
0.093120 -0.009366 0.165725 
0.089031 -0.012199 0.171062 
0.084885 -0.014674 0.169540 
0.079509 -0.017116 0.168432 
0.083246 -0.016596 0.163680 
0.073793 -0.019199 0.167697 
-0.065236 -0.015589 0.168216 
-0.058478 -0.018291 0.169320 
-0.072230 -0.015748 0.164134 
-0.064604 -0.019229 0.164500 
0.071718 -0.021020 0.162496 
0.065378 -0.021237 0.168320 
0.062574 -0.023344 0.162572 
0.047799 -0.024314 0.171609 
0.034954 -0.026753 0.169391 
0.043188 -0.026859 0.164342 
0.025821 -0.027814 0.169064 
-0.005862 -0.026756 0.173007 
-0.021756 -0.026946 0.167894 
-0.015787 -0.028914 0.163707 
-0.034962 -0.025129 0.168637 
-0.045940 -0.022139 0.170698 
-0.053048 -0.020821 0.168863 
0.021785 -0.030857 0.159958 
0.016745 -0.029355 0.165860 
0.007697 -0.029710 0.165435 
0.069085 0.023607 0.162909 
0.073515 0.023381 0.160335 
0.060733 0.027719 0.153688 
0.052612 0.025832 0.161468 
0.054765 0.029321 0.150975 
0.044761 0.026192 0.161629 
0.044750 0.029044 0.153956 
0.036933 0.026553 0.161658 
0.022376 0.029097 0.158287 
0.019455 0.032238 0.152882 
0.013901 0.029422 0.158729 
0.011007 0.032492 0.153589 
0.003161 0.029380 0.159147 
-0.007181 0.028788 0.159286 
-0.015126 0.030430 0.154622 
-0.017319 0.027823 0.159052 
-0.023497 0.029944 0.153234 
-0.026934 0.026805 0.158664 
0.086286 0.019088 0.157519 
0.089595 0.015176 0.161086 
0.082122 0.021533 0.156773 
-0.046294 0.024436 0.159352 
-0.035483 0.027793 0.154843 
-0.056677 0.023722 0.158555 
-0.049024 0.026821 0.154443 
-0.059479 0.026274 0.153821 
-0.074290 0.019546 0.157967 
-0.067721 0.021144 0.159113 
-0.067562 0.025404 0.153371 
-0.079509 0.020735 0.154606 
-0.079414 0.016153 0.158538 
