-0.340955 -0.230746 0.006127 
-0.494084 0.166365 0.060324 
0.071266 0.224024 0.454278 
-0.156105 -0.382963 -0.117893 
0.169058 0.185363 -0.432851 
0.038790 -0.388730 0.123082 
0.359361 0.077032 0.329139 
-0.391595 0.346242 -0.024589 
0.358983 0.183606 0.342064 
0.297814 -0.261686 0.073023 
-0.211333 0.122594 -0.451945 
-0.200552 0.197501 0.446208 
-0.208671 -0.096096 -0.371133 
0.200683 -0.343905 0.057610 
0.380268 0.199130 -0.228383 
-0.381904 0.377359 -0.091158 
-0.262799 -0.230656 -0.215478 
0.238514 0.108937 -0.435974 
0.359007 -0.025350 0.283403 
0.205878 -0.313684 0.046674 
0.261315 0.082813 -0.417002 
-0.135953 -0.256712 0.287956 
-0.092639 0.245692 0.136263 
-0.338974 0.213339 0.333867 
0.161809 -0.329873 0.138532 
-0.345916 -0.190211 -0.138874 
0.034207 0.003579 0.465885 
0.379544 0.204594 -0.145077 
0.114643 -0.304445 0.209981 
0.483550 0.061889 0.003667 
-0.173829 0.220515 -0.242878 
-0.181948 -0.247798 -0.266383 
0.072499 -0.201165 0.362497 
-0.017611 0.201306 0.488148 
-0.404675 0.052601 -0.268241 
0.093004 -0.339569 -0.164081 
0.315353 0.213933 0.047966 
0.315353 0.175699 0.385018 
-0.427484 0.033158 -0.218223 
0.047764 -0.358466 0.224818 
0.068735 -0.276653 -0.280177 
-0.218276 -0.307804 0.056413 
-0.081763 -0.364990 -0.170653 
0.063247 -0.391418 -0.158443 
-0.204342 0.155526 0.453310 
-0.382747 0.070703 -0.307239 
-0.388021 -0.121607 0.150336 
0.143682 0.197801 -0.293542 
0.070559 0.224669 0.294162 
0.196664 -0.044890 0.404159 
0.409346 -0.101976 0.111311 
-0.478502 0.198147 0.031218 
-0.246485 -0.273759 0.156264 
-0.041923 0.248083 0.275577 
-0.133952 -0.170159 0.367253 
0.122044 0.038533 0.460291 
-0.377561 -0.094139 0.207968 
0.219593 -0.203514 -0.285152 
0.234200 0.239906 -0.158606 
-0.133159 -0.067198 -0.418714 
-0.411963 0.142986 0.278813 
0.092287 -0.087076 0.423167 
0.189499 -0.053525 0.403838 
0.022648 -0.318692 -0.198025 
0.058262 -0.010084 -0.457881 
0.456172 0.031476 0.131011 
-0.233441 -0.019067 -0.397852 
0.178915 0.037176 -0.443830 
0.402195 0.101265 -0.288197 
-0.290517 -0.200453 0.227102 
-0.094074 -0.282966 -0.261323 
-0.479219 0.225042 0.100380 
0.297265 0.178856 -0.376220 
0.250476 0.058019 -0.415084 
-0.300105 -0.244393 -0.132438 
-0.375666 -0.158428 0.121334 
0.027750 0.013366 -0.470319 
-0.250992 0.220858 -0.165344 
-0.356225 -0.173488 0.151033 
-0.063486 0.075060 -0.486235 
-0.110274 -0.238020 0.320847 
0.339069 -0.133488 -0.222469 
0.427623 -0.073958 -0.088532 
0.448506 0.138233 0.221918 
0.459721 0.137857 0.197191 
-0.228170 -0.304895 0.051800 
-0.477973 0.138715 0.143663 
-0.408753 0.276031 0.040258 
-0.471780 0.384933 -0.058059 
-0.441230 0.208334 0.183719 
0.340620 0.165529 -0.351863 
0.383214 0.208137 -0.058426 
0.375094 -0.183470 0.036692 
0.386310 -0.055031 -0.221376 
0.128388 -0.241270 -0.302249 
0.081600 -0.128721 -0.400053 
-0.310116 -0.115260 0.283886 
-0.355356 0.214428 -0.050287 
0.346885 -0.036977 0.291514 
-0.423405 -0.105784 -0.015595 
0.475657 0.142027 -0.158819 
0.337466 0.218610 0.320159 
-0.386662 0.368229 -0.053141 
-0.295011 -0.266754 0.065730 
0.159354 -0.102738 0.394612 
-0.225850 -0.266062 0.203485 
0.100972 -0.083461 -0.419311 
-0.204172 -0.076298 -0.384536 
-0.437302 0.233652 0.023270 
-0.414871 0.207833 -0.130883 
-0.260193 0.208546 0.403363 
-0.433882 0.244248 -0.168630 
-0.416797 -0.110280 -0.065262 
-0.444539 0.111644 0.216163 
0.017653 0.235094 -0.238042 
0.011663 -0.194813 0.373482 
-0.450821 0.152826 -0.216266 
-0.409055 0.373517 -0.014990 
0.257991 0.193420 -0.344425 
0.396431 0.125737 -0.303261 
-0.260949 -0.266891 0.149062 
-0.251281 -0.182485 -0.277069 
0.377879 -0.175161 -0.067816 
-0.346243 -0.106486 0.246565 
-0.490350 0.163753 0.099436 
-0.259948 -0.017313 -0.380417 
0.395675 0.205233 -0.100079 
0.049199 -0.253763 -0.311654 
0.221921 0.078838 -0.438161 
0.268074 0.083233 0.408526 
0.424300 -0.068648 -0.118347 
-0.105856 0.233544 -0.250274 
0.173578 -0.221220 -0.300453 
-0.031991 -0.329943 0.217232 
0.415803 0.169679 -0.257762 
-0.414040 0.224042 -0.241331 
0.490597 0.127166 0.087403 
-0.124398 0.236981 -0.135382 
0.102596 0.226817 0.408352 
-0.102344 -0.042446 -0.437586 
-0.131346 -0.054278 0.427318 
-0.115485 0.050814 -0.468882 
-0.479748 0.127483 0.135298 
0.171061 0.230576 0.245146 
0.017931 0.237637 -0.178856 
0.151442 -0.388437 -0.123851 
0.365956 -0.167465 0.132169 
0.203159 -0.374562 0.098335 
-0.446870 0.351140 -0.093158 
0.250727 0.024115 0.401039 
-0.306811 -0.220508 -0.166872 
0.337662 -0.032486 -0.304421 
-0.068673 0.194284 -0.391892 
-0.192800 0.050230 -0.443562 
-0.383050 0.373849 -0.121984 
0.275877 0.132410 -0.412810 
0.324214 0.212854 0.020532 
0.404649 0.192247 -0.240502 
-0.094956 -0.170055 -0.368565 
0.262736 0.189058 -0.371024 
0.273951 0.239696 0.108445 
-0.450035 -0.049647 -0.001524 
0.062441 -0.228303 -0.332302 
0.308769 -0.027568 0.336480 
-0.192385 -0.018790 -0.417836 
-0.260056 -0.044915 -0.366932 
-0.140951 -0.378495 0.160052 
-0.160664 0.181153 -0.447388 
-0.465374 0.359968 -0.062013 
0.415903 -0.090475 -0.108899 
-0.357485 -0.208597 0.042872 
-0.444868 0.345414 -0.105892 
-0.208207 -0.310554 0.074697 
-0.238930 -0.298845 -0.068978 
0.357143 -0.209808 0.033328 
0.493184 0.121070 0.055137 
-0.159618 0.202308 -0.287256 
0.487464 0.105172 0.079209 
0.144084 -0.187402 0.348894 
-0.305636 -0.135761 0.270909 
0.459632 0.203714 -0.058089 
0.262682 -0.277995 0.102999 
-0.397665 -0.138289 -0.082552 
-0.082494 0.241132 -0.023602 
-0.053492 -0.091532 0.427125 
0.488379 0.104470 -0.091324 
-0.283960 -0.151349 0.283480 
-0.438637 0.020686 0.179754 
-0.369418 0.214056 -0.265924 
0.356126 -0.083142 0.245727 
0.030040 -0.041971 0.449601 
0.437616 -0.072367 -0.022777 
0.120142 0.194546 -0.361969 
0.306711 -0.040458 -0.331856 
0.223009 -0.069033 0.379507 
-0.403820 0.250524 -0.161525 
-0.286264 0.181003 -0.385542 
0.382331 0.193320 -0.256488 
0.227654 -0.270753 0.189529 
-0.080153 -0.091056 -0.420064 
0.195339 -0.352075 0.087693 
-0.146276 -0.320960 -0.129873 
0.275613 -0.161526 -0.275411 
0.238492 0.057600 0.418445 
0.292582 -0.198314 0.225942 
0.004550 -0.272045 0.299828 
0.336336 -0.148707 -0.211983 
0.213521 -0.309088 -0.064099 
-0.408427 0.223215 0.146165 
-0.403782 0.227909 0.115928 
0.390488 0.065775 0.285826 
-0.056135 -0.148356 -0.391481 
-0.399515 -0.139681 0.065766 
0.336387 -0.009745 -0.318874 
0.302727 0.093355 -0.388920 
-0.362772 0.215708 -0.028277 
-0.283884 0.229335 -0.074968 
0.423380 0.168812 -0.245498 
0.068785 0.114368 0.489085 
0.043364 0.004392 -0.465427 
0.474436 0.184681 -0.111825 
-0.250615 -0.130525 -0.320369 
-0.297404 0.216339 -0.063924 
0.417980 -0.105719 -0.065074 
0.040953 -0.375369 0.225715 
0.313187 0.193127 -0.317755 
0.101913 0.037554 0.465636 
-0.406731 -0.097438 0.138111 
0.086831 -0.303913 -0.223475 
0.474984 0.083854 -0.127535 
0.111344 -0.064607 -0.425797 
-0.493054 0.156067 -0.070311 
0.475229 0.202530 0.051164 
-0.267609 0.204658 -0.224716 
0.062825 -0.200822 -0.355723 
0.216758 -0.226794 -0.265967 
-0.479120 0.196134 -0.005529 
0.361939 0.215249 0.074033 
-0.086293 0.227058 0.430311 
0.211907 0.220642 0.415142 
0.013537 0.248358 0.225311 
-0.284602 -0.247972 0.156843 
0.375075 0.007160 -0.280681 
0.189178 -0.363687 -0.074855 
0.403836 0.070659 -0.273213 
-0.469154 0.381057 -0.028663 
0.244083 -0.252671 0.209563 
0.464257 0.207424 0.176934 
0.157792 -0.251015 -0.278214 
0.275349 -0.121418 -0.309161 
-0.488371 0.169743 -0.070089 
-0.362696 0.244297 -0.178279 
-0.108249 0.022812 0.459272 
-0.068031 0.224915 0.450449 
0.335501 0.222286 0.295807 
0.208848 -0.379441 -0.016028 
0.421221 -0.053613 -0.146554 
0.266450 0.168879 0.421656 
0.358503 0.195714 -0.265211 
0.013575 -0.397803 0.040796 
-0.303899 0.018462 -0.364767 
-0.495697 0.134019 -0.065031 
0.488429 0.080734 -0.033318 
0.098655 0.234485 -0.267423 
0.274216 0.223714 0.345255 
-0.296157 0.220987 0.177891 
0.399891 0.027563 -0.256175 
0.238643 0.201968 -0.242279 
-0.455857 0.357596 -0.083436 
-0.465902 0.106339 0.165533 
-0.465902 0.159771 -0.177825 
-0.092350 -0.016241 -0.451438 
-0.430707 0.290904 -0.145978 
-0.008818 0.138126 0.496768 
0.145859 -0.320905 -0.137207 
0.068143 -0.338910 -0.173494 
-0.188608 -0.380783 0.068815 
-0.478629 0.271406 0.048883 
0.228636 0.220561 0.217391 
-0.114744 0.192973 -0.416243 
-0.393548 0.328391 -0.003337 
0.405367 0.196394 -0.229662 
0.018673 -0.064272 0.442486 
-0.028115 -0.388021 -0.190490 
-0.158813 0.233186 0.245339 
-0.050924 0.248690 0.268206 
0.119614 -0.249975 0.303396 
0.393396 -0.140488 -0.095487 
0.364394 -0.162700 0.146682 
-0.299556 0.210442 -0.113405 
-0.187022 0.207238 -0.246742 
-0.464279 0.207225 -0.033621 
0.367113 -0.156591 -0.145073 
0.242986 0.250228 0.105691 
-0.216402 0.222624 0.221340 
-0.409889 0.362563 -0.003891 
0.016394 0.233882 -0.276127 
-0.393109 0.194206 0.286794 
0.061256 0.180285 0.492088 
-0.137095 0.112676 0.473141 
0.111141 -0.352307 0.193217 
-0.033454 -0.289989 -0.260442 
-0.390390 0.215527 -0.259304 
0.250751 -0.134402 0.323721 
-0.115059 0.241840 0.259917 
-0.244209 -0.265190 0.183920 
-0.283256 0.237589 -0.000521 
-0.431740 -0.001816 -0.181306 
-0.243416 0.136680 -0.434635 
-0.410422 0.210796 -0.090466 
0.351547 0.222087 0.264299 
-0.474262 0.376424 -0.049347 
0.252337 0.222795 0.382185 
0.068658 -0.004425 -0.459664 
-0.171477 -0.283022 0.216444 
-0.132808 -0.258742 -0.279097 
0.120091 -0.178085 -0.355919 
-0.110377 -0.327460 -0.148119 
0.077948 0.246898 0.096321 
-0.018726 0.235648 -0.227124 
-0.492426 0.162055 0.074626 
-0.297531 0.220584 0.163431 
0.440284 0.197363 -0.164610 
-0.146590 0.160690 0.476827 
-0.455682 0.206030 -0.076865 
-0.249721 -0.286710 0.105053 
-0.328458 -0.216072 0.136603 
0.148338 -0.316802 0.154341 
-0.214376 -0.261706 0.226652 
0.268991 -0.275535 -0.106580 
0.173866 -0.118125 -0.375362 
0.200942 -0.328034 -0.003037 
-0.426313 0.044427 -0.229711 
-0.211657 -0.281082 -0.186287 
-0.366335 -0.200139 0.007099 
0.108913 0.229807 -0.272330 
0.447270 0.023532 -0.161759 
-0.255349 -0.145504 0.313568 
0.493206 0.162096 -0.060519 
-0.003008 -0.307606 0.232942 
-0.297493 0.225145 -0.011939 
0.179304 -0.362232 -0.090343 
-0.408856 0.147545 -0.284034 
-0.157505 0.208330 -0.263630 
0.460357 0.204928 -0.026284 
0.461205 0.146878 -0.186477 
-0.397668 0.277668 -0.198748 
0.423019 -0.023990 -0.175110 
-0.195004 -0.379627 -0.050874 
-0.124236 -0.383023 0.130338 
-0.314486 0.220715 0.163751 
-0.478831 0.061713 -0.089346 
-0.443636 0.197867 -0.156282 
-0.419656 -0.030211 0.183117 
-0.408917 0.125206 -0.287716 
-0.096367 0.246105 0.154545 
-0.289714 -0.239468 0.160017 
0.206810 -0.084613 -0.378647 
0.104722 0.224202 0.314094 
-0.406099 0.207396 -0.165928 
-0.187138 -0.237910 -0.272969 
-0.241754 -0.176026 0.303061 
-0.374001 -0.125195 -0.173722 
-0.118365 -0.242023 -0.305932 
0.187264 -0.027356 -0.415688 
-0.013212 -0.292293 -0.260268 
-0.462933 0.340089 -0.134970 
0.436130 0.120323 -0.240238 
-0.316119 -0.224105 0.148270 
0.237761 0.179766 -0.413201 
-0.041044 0.066580 -0.486305 
-0.453643 0.023378 0.141587 
0.205285 0.197072 -0.301251 
0.214952 0.190506 -0.388090 
-0.323323 0.204869 -0.223408 
0.034369 -0.142022 -0.396033 
-0.466202 0.356898 -0.054166 
0.256718 -0.259040 -0.177399 
-0.231672 -0.275623 -0.176523 
-0.486497 0.090416 -0.081753 
-0.127257 0.244440 0.120758 
0.199507 -0.075903 -0.386259 
-0.175971 0.062213 -0.454297 
0.418382 0.206331 -0.055961 
-0.121441 -0.391426 -0.036405 
-0.015101 0.248362 0.222430 
-0.398698 0.209314 -0.124018 
0.044449 -0.383324 0.177885 
0.240895 0.245490 -0.035427 
-0.428077 0.262785 -0.204064 
0.108271 -0.203440 -0.341250 
-0.217322 -0.310899 -0.044560 
-0.438122 0.351942 0.012621 
-0.367354 -0.159115 0.145811 
0.235117 0.088878 0.428812 
0.345337 -0.157109 0.195482 
0.285002 0.149596 0.410479 
0.333339 -0.229013 0.084846 
0.117183 0.130897 -0.484658 
-0.175134 -0.163473 -0.343020 
-0.492237 0.194672 0.093067 
0.003276 0.077756 0.486256 
0.166691 -0.298735 0.187097 
-0.489869 0.091405 -0.066268 
-0.100575 -0.149523 0.388581 
0.064995 0.235039 -0.269731 
0.037541 -0.382436 0.184348 
0.153549 -0.267544 0.262643 
0.058345 -0.307609 -0.224399 
0.474120 0.189835 0.176848 
0.329448 0.165664 0.375773 
-0.145854 -0.145419 -0.370428 
-0.388200 0.217151 0.057876 
0.148077 -0.013830 0.436349 
-0.413313 -0.016493 0.207132 
0.330280 0.190891 0.366638 
0.294708 -0.220476 -0.187480 
-0.483702 0.168698 -0.106167 
-0.298475 -0.105037 0.302433 
0.361605 -0.036441 0.273226 
0.490773 0.109330 -0.071131 
0.210420 -0.379744 -0.027700 
-0.426076 0.293538 0.040772 
-0.211846 -0.045046 0.398315 
-0.265205 0.052542 -0.405487 
0.248614 -0.179484 0.291982 
-0.402474 0.236438 0.048239 
0.351579 0.191676 -0.297407 
-0.176675 0.068085 0.451234 
0.417324 -0.013767 0.196326 
0.333415 0.191767 -0.312991 
0.431259 -0.027019 -0.152381 
0.473025 0.203716 0.153349 
0.076286 0.052010 0.474099 
-0.230299 0.093064 0.432340 
0.115158 -0.139144 -0.384835 
-0.252800 0.238691 0.135792 
0.476809 0.195508 0.167849 
-0.344432 -0.225332 -0.028623 
-0.122036 -0.373967 0.189471 
-0.338239 -0.186708 0.167222 
0.465699 0.110679 -0.175586 
0.184968 0.075320 0.448802 
-0.169627 -0.086059 0.398743 
0.034935 0.119583 0.493156 
0.164300 0.212254 0.451561 
-0.398924 -0.102087 -0.145636 
-0.195910 -0.261008 0.244263 
0.170680 0.250633 0.221328 
-0.137127 -0.170892 -0.353507 
0.355819 0.188516 -0.305926 
-0.404716 0.278383 0.007483 
0.183853 0.219785 0.433761 
-0.238823 0.080885 0.424929 
-0.408190 0.218385 0.042553 
-0.185841 -0.314529 0.096926 
0.258857 -0.284171 0.086212 
0.395748 0.182205 0.299769 
-0.443528 -0.038908 0.098345 
-0.276321 0.203591 -0.247713 
-0.445689 -0.056295 0.038667 
-0.463475 0.198000 -0.116974 
-0.282515 -0.080543 -0.330419 
-0.091849 0.246843 0.190986 
0.307609 0.154932 -0.385914 
-0.453015 0.022688 -0.144511 
0.216354 -0.117200 0.358357 
0.118907 -0.272456 -0.270236 
0.325018 -0.238755 0.077291 
-0.493610 0.114883 0.050361 
0.300661 0.169924 0.397379 
0.012189 0.236359 -0.205126 
0.002098 0.193404 -0.401954 
-0.261971 -0.249565 -0.187057 
0.251946 0.038392 -0.407461 
-0.162201 -0.320766 0.129005 
-0.412004 0.115815 -0.282778 
-0.410456 -0.116839 -0.080207 
-0.310686 -0.206932 -0.181382 
-0.215938 -0.033038 -0.400375 
-0.272394 0.183860 -0.389261 
-0.069380 -0.185755 0.374587 
0.191610 0.251723 0.194681 
0.175400 -0.108000 0.384786 
0.185068 -0.306950 -0.136652 
-0.335420 -0.209016 0.132480 
-0.150193 -0.315933 0.148208 
-0.206648 -0.173243 -0.320537 
0.199380 0.223261 0.232256 
-0.358229 0.201714 0.326951 
-0.252266 -0.109979 0.336907 
-0.029917 -0.282075 -0.276732 
0.319621 -0.030791 -0.322773 
-0.458795 0.212297 -0.006197 
0.283321 -0.151810 0.281722 
-0.039962 -0.260154 0.312181 
-0.244902 0.194947 0.424157 
-0.433604 0.272808 -0.196565 
0.494083 0.130871 0.067684 
-0.047288 0.226190 0.443645 
0.375955 -0.187822 -0.002439 
0.187478 -0.273005 -0.227859 
-0.458339 -0.013168 0.073156 
0.200588 -0.177638 0.328556 
-0.001989 -0.189275 -0.368453 
-0.271941 -0.251266 0.174422 
-0.202721 -0.136981 0.356306 
0.124757 -0.119817 -0.392934 
-0.344635 0.216995 0.075073 
-0.010493 0.227107 0.428638 
-0.014774 0.237947 -0.150876 
-0.430470 0.303641 -0.138603 
-0.388704 0.156376 -0.309443 
0.476334 0.045850 0.053922 
-0.343355 -0.165980 -0.182477 
-0.438967 0.301892 0.040069 
-0.397618 -0.147061 -0.054789 
0.026093 0.247938 0.191685 
0.416404 0.141853 -0.273240 
-0.076630 0.235551 0.280223 
0.214938 -0.248017 0.244697 
0.069928 -0.386066 -0.180377 
0.052142 0.247539 0.118915 
0.151912 0.238719 -0.200346 
0.196774 -0.313187 0.085964 
-0.184214 0.230532 0.227838 
0.470557 0.203956 0.166274 
0.211087 0.221484 0.227678 
0.254885 -0.192348 -0.267926 
0.167395 0.235641 -0.229797 
0.169472 -0.305087 -0.165736 
0.404056 -0.137295 -0.041513 
0.195516 -0.338380 -0.038144 
0.265239 0.246782 0.102391 
0.131444 -0.108754 -0.398466 
0.152948 0.069688 -0.465487 
0.287670 0.232079 -0.073313 
-0.246341 -0.086367 -0.352359 
0.306516 -0.222447 -0.162970 
0.139804 -0.264453 -0.272749 
0.208405 -0.380915 0.070211 
0.208405 -0.381931 0.043938 
-0.003106 0.240320 0.288246 
-0.167450 -0.376369 0.134769 
0.162712 -0.136826 0.373302 
-0.436588 0.332356 -0.035608 
-0.390177 -0.018183 -0.246341 
-0.398296 0.295061 -0.190713 
-0.388629 0.213283 -0.032660 
0.346089 -0.122650 -0.223797 
-0.244440 -0.244686 0.221001 
-0.448559 -0.030367 0.092832 
0.269921 0.211771 -0.148062 
-0.105557 -0.032307 0.442604 
0.400242 -0.006753 -0.235713 
0.469461 0.184757 -0.156401 
-0.221942 0.009111 0.412603 
-0.178628 -0.110339 0.382847 
0.167470 -0.068142 0.407228 
-0.382020 -0.163410 -0.078670 
0.169018 -0.050892 -0.411105 
-0.303133 -0.237470 0.145188 
0.202665 0.179551 -0.429591 
0.434682 -0.080745 -0.006946 
-0.100874 0.007154 -0.458292 
-0.091207 -0.127085 -0.396240 
0.493479 0.175694 -0.013318 
-0.282703 0.209383 -0.139035 
0.420407 0.064718 0.241295 
-0.037137 -0.381717 0.178689 
0.261773 -0.275624 0.117159 
0.162485 0.000943 -0.437415 
-0.295354 0.084799 0.388580 
0.207348 -0.315390 -0.011180 
-0.419481 -0.096750 -0.084331 
-0.066812 -0.297269 -0.238350 
-0.192865 -0.318695 -0.054083 
-0.265559 -0.281077 -0.086839 
-0.465854 0.210376 0.002185 
0.495197 0.109308 -0.036291 
0.147984 -0.330502 0.155013 
0.144359 0.095272 -0.474706 
0.057353 -0.372770 -0.187185 
0.170003 0.089252 -0.464382 
0.477694 0.175920 0.153466 
0.457981 0.193743 -0.127234 
-0.370313 0.002647 0.286383 
-0.112769 -0.370132 0.201418 
-0.285233 0.221497 -0.086938 
-0.081440 0.051156 -0.476640 
0.218248 0.222529 0.275735 
0.063570 0.190758 -0.424766 
-0.242688 0.222112 0.393220 
0.243776 -0.240917 -0.221806 
-0.468889 0.386731 -0.045205 
0.048877 0.245082 0.038122 
-0.147897 0.106985 0.469466 
0.225234 0.191979 -0.372732 
-0.100359 0.045990 0.467811 
0.007530 -0.194684 -0.363368 
-0.046207 0.237809 -0.143659 
-0.010483 -0.298540 0.252691 
0.415900 0.219045 0.232323 
-0.306054 -0.254754 -0.073509 
0.268964 0.048433 -0.400309 
-0.422440 0.206658 -0.144104 
-0.345101 0.194329 -0.312945 
-0.401557 -0.141412 -0.037699 
0.065572 -0.138441 -0.396486 
-0.367910 0.273953 -0.175938 
-0.472703 0.025792 0.056880 
-0.497438 0.117359 0.007376 
0.374172 0.176553 -0.308906 
-0.447553 0.085904 0.198625 
-0.426670 0.350410 -0.062631 
-0.181889 -0.282571 0.209537 
-0.140288 0.235042 -0.172877 
-0.389926 0.358715 -0.024884 
-0.370591 0.108727 -0.333380 
0.210997 -0.311969 0.034751 
-0.125811 0.234457 -0.198927 
0.284862 0.203317 -0.199285 
-0.039183 0.236853 -0.183575 
0.163831 0.249002 0.231688 
-0.045754 -0.192367 0.373123 
0.240792 0.073798 0.421707 
0.429117 0.112998 0.247990 
-0.247597 0.191626 -0.378767 
-0.357412 0.234858 -0.200443 
0.291848 0.220705 0.357310 
0.265142 -0.273869 -0.123155 
-0.169088 0.199446 -0.323401 
-0.016336 -0.329330 -0.182631 
-0.451771 -0.009476 -0.111836 
0.476321 0.182711 0.132515 
-0.160176 -0.385096 -0.107180 
-0.440529 0.161017 0.229294 
0.007266 -0.015990 0.459990 
-0.350426 0.139936 -0.351944 
-0.220106 -0.089097 -0.369317 
-0.110668 0.010311 -0.456215 
-0.048019 0.083242 0.484808 
0.272551 0.172070 -0.399085 
0.204880 -0.135202 -0.348386 
-0.433165 0.212554 -0.032937 
-0.365148 0.217141 0.064584 
0.199857 -0.322573 0.042007 
-0.415756 0.260289 0.011236 
-0.317534 -0.172799 -0.212840 
-0.153189 -0.376369 0.155347 
-0.141974 0.224741 0.274601 
-0.031414 0.096644 0.488443 
0.422538 -0.025353 0.174748 
-0.362774 0.206636 -0.190098 
-0.010105 -0.222960 -0.342045 
-0.073132 -0.331611 0.205956 
-0.410142 0.180885 0.274298 
-0.162064 0.044561 0.451036 
0.156581 0.251002 0.226759 
-0.083554 0.201075 -0.301722 
0.267255 -0.152512 -0.289652 
-0.169012 0.128913 0.466084 
-0.259334 -0.058571 -0.359291 
-0.183702 -0.324877 -0.051990 
-0.339331 0.067803 -0.352355 
-0.398309 0.261063 -0.155828 
-0.348424 -0.175952 0.162672 
0.029037 0.204017 0.485678 
-0.431163 0.200189 -0.240818 
-0.202621 -0.013539 0.415313 
0.050278 0.153170 0.496023 
0.480286 0.127215 -0.136746 
-0.019029 -0.229655 -0.335533 
0.019350 0.193633 -0.388746 
0.136906 -0.294865 0.220631 
-0.327126 0.220754 0.159228 
-0.354580 0.221454 0.194776 
-0.411413 0.386389 -0.031795 
0.487650 0.186375 -0.018995 
-0.440415 0.359448 0.005851 
-0.155801 0.246395 0.219397 
-0.027401 0.147982 0.497385 
0.428513 -0.065886 -0.103725 
0.207712 -0.379170 0.080079 
-0.100095 0.109738 -0.486379 
-0.314702 0.123479 0.381383 
-0.029704 0.247389 0.172660 
-0.183211 -0.258561 0.257171 
0.098690 0.148203 -0.484864 
-0.491018 0.199305 0.080700 
-0.094657 0.227211 0.369223 
0.467220 0.126989 -0.179360 
-0.399744 0.303084 -0.003321 
0.434744 0.170669 0.246547 
-0.257988 -0.286767 0.085599 
-0.045527 0.162118 -0.487299 
0.159035 -0.312846 0.148244 
0.257257 0.201758 -0.194619 
-0.466245 -0.003028 -0.032595 
0.065459 0.225980 0.358054 
0.195779 -0.323388 -0.039247 
-0.427953 0.087644 0.234313 
0.190379 -0.366642 0.116266 
0.104921 -0.340531 -0.157934 
-0.063869 0.248670 0.252942 
-0.430257 0.352175 -0.075394 
0.133716 0.122757 0.476660 
-0.087255 -0.031558 0.446220 
-0.232265 -0.252619 -0.216369 
0.006819 0.192986 -0.413081 
0.350872 -0.073537 -0.259799 
0.075164 0.226409 0.432931 
0.217857 0.224958 0.358025 
0.211135 -0.310811 -0.051419 
0.024643 -0.126301 0.414148 
0.452970 0.060013 0.168615 
-0.127071 -0.251741 0.297455 
0.087159 -0.308995 0.209392 
0.019487 0.244146 0.284184 
-0.384993 -0.171856 0.021348 
0.170691 -0.278027 0.232824 
-0.030775 0.193689 -0.403572 
0.204338 -0.312861 0.062626 
0.324215 0.127553 -0.379675 
-0.148709 0.191630 -0.417090 
-0.332389 0.173287 -0.355378 
0.308752 -0.259931 0.038105 
-0.274762 -0.081942 0.339326 
0.174580 -0.385251 -0.099699 
-0.056265 -0.350383 -0.176239 
0.431747 -0.013496 0.162165 
0.010199 -0.124694 -0.410032 
0.418605 -0.014346 -0.191744 
-0.430573 0.253877 -0.162375 
-0.013329 0.127306 -0.497932 
-0.303349 0.204294 -0.249844 
0.355579 0.142101 -0.348149 
-0.406593 0.198789 0.262923 
-0.327706 0.127761 0.370776 
-0.332729 -0.146044 0.228497 
0.337415 -0.085138 0.271253 
-0.287866 -0.197468 0.235886 
-0.005965 0.118465 -0.497980 
0.293723 -0.063171 -0.330177 
0.353275 0.194219 -0.283975 
0.054758 0.239311 -0.150291 
-0.446395 0.246458 -0.174525 
0.297107 -0.229819 -0.168126 
0.170389 -0.242834 0.287591 
-0.312979 -0.072938 -0.304948 
0.091124 -0.391836 -0.121387 
0.268233 -0.198742 -0.247148 
-0.484570 0.122653 0.113213 
-0.474604 0.368044 -0.017963 
-0.482771 0.175347 -0.093546 
0.140081 0.057871 -0.466033 
0.416716 0.206038 -0.176426 
-0.113023 0.202189 -0.292743 
0.006673 -0.051890 0.447331 
0.222973 -0.257812 0.224398 
-0.066612 0.104580 0.487598 
0.329749 -0.237582 0.060303 
0.437559 -0.066722 0.039092 
0.240817 0.226699 -0.174489 
0.153811 -0.028608 -0.429231 
0.437260 0.209084 -0.004308 
0.390472 0.211544 0.020724 
-0.363581 0.234655 -0.181994 
-0.091347 -0.386299 -0.169774 
-0.362033 -0.199979 0.054608 
0.163062 -0.269464 0.253649 
0.312636 -0.015678 0.337939 
0.059478 0.106005 0.488337 
-0.374004 -0.187765 0.021547 
-0.218649 0.243570 0.145530 
0.237758 0.203368 0.424845 
0.445015 0.203783 -0.103640 
0.445417 -0.044970 -0.064246 
-0.054188 -0.378223 0.210589 
0.295384 -0.033932 0.345168 
0.440394 0.122834 0.232310 
0.006299 0.168156 -0.485530 
-0.288130 -0.026385 -0.356375 
0.228818 -0.304542 -0.043457 
0.399662 -0.102523 0.142921 
0.170135 -0.366445 0.149590 
0.113841 0.236423 -0.248221 
0.248592 0.239764 -0.144190 
0.195462 -0.093518 -0.378518 
-0.121822 -0.278179 -0.259052 
0.360375 0.013179 0.301752 
0.103623 -0.393203 -0.044429 
0.216157 -0.272311 0.201009 
-0.067670 -0.304596 0.225466 
-0.201464 -0.367049 -0.019267 
-0.072692 -0.049092 -0.441560 
-0.175936 -0.370629 -0.090570 
-0.107094 0.240327 -0.031657 
-0.102450 0.226975 0.422643 
0.295460 -0.214369 0.200829 
0.295460 0.107534 0.393845 
0.415907 0.192792 -0.221217 
-0.444281 0.250911 0.084470 
-0.444281 0.326898 -0.174653 
-0.444281 0.398669 -0.066567 
-0.075373 -0.266357 0.296705 
0.233982 -0.229863 -0.246044 
0.071185 -0.090272 -0.422455 
-0.033607 -0.383242 0.155167 
0.190290 -0.250495 0.264500 
-0.277119 -0.101639 -0.320075 
0.434418 0.214965 0.120222 
-0.367320 0.217613 0.282912 
-0.017747 0.171991 -0.482770 
0.185267 0.165192 -0.451297 
-0.075751 -0.353622 0.211853 
-0.006531 -0.300411 -0.244518 
-0.137590 -0.092928 -0.403777 
-0.322572 0.134757 0.377356 
-0.438465 -0.070263 -0.032965 
0.284360 0.101688 0.402553 
0.057162 0.212824 0.476309 
-0.490276 0.214020 0.085457 
-0.305048 0.216783 -0.010455 
0.197654 -0.005681 0.418332 
-0.458178 0.356850 -0.094797 
-0.253314 0.235260 -0.105855 
-0.292904 0.185447 -0.373485 
0.452101 -0.036073 0.011379 
-0.437295 0.153952 0.239073 
0.414980 -0.118703 -0.031346 
-0.205656 0.230092 -0.202761 
-0.060646 0.238035 -0.133823 
-0.068765 -0.133804 -0.398460 
0.496022 0.121381 -0.053585 
-0.044725 -0.269917 0.298568 
-0.236962 -0.081496 0.365233 
0.397609 0.179297 -0.272425 
-0.151881 0.033691 -0.453089 
-0.111664 0.248182 0.234104 
0.482689 0.154834 0.131130 
0.260340 0.222459 0.288217 
0.034517 0.076093 0.484725 
0.268082 0.017307 -0.388296 
-0.420281 0.235265 -0.168190 
0.478460 0.168261 -0.153542 
-0.449605 0.119830 -0.219525 
-0.033910 0.242370 0.006764 
-0.303047 -0.002978 0.354166 
0.315663 0.191518 -0.327936 
0.329975 0.179844 0.371612 
0.329598 -0.223690 -0.111565 
0.031458 -0.000255 -0.465030 
0.069750 -0.283883 0.271509 
-0.024596 0.239098 -0.110424 
0.004406 0.237544 -0.166181 
0.217088 0.216161 0.422265 
0.208969 -0.292179 0.158396 
0.160632 -0.176913 0.348797 
0.355527 -0.174277 -0.141889 
0.387626 0.020814 0.269330 
0.070152 0.053016 -0.478906 
0.419347 0.180574 -0.238045 
0.179212 -0.385857 0.064917 
0.223735 0.127737 -0.444972 
0.127401 0.172490 -0.465240 
-0.469749 0.011056 -0.047271 
-0.381872 -0.152935 -0.103679 
-0.043365 -0.145812 -0.394049 
0.355658 0.070380 -0.335489 
0.415495 0.152036 -0.269903 
0.400805 0.186900 -0.254882 
-0.021461 0.017673 -0.471690 
-0.456492 0.201282 -0.108835 
-0.396939 0.081419 -0.292566 
-0.471182 0.374485 -0.090562 
0.060522 0.248968 0.169271 
-0.270093 0.200331 -0.323828 
-0.057789 0.063638 0.479739 
0.403322 0.145906 -0.290947 
-0.410836 0.209525 0.242182 
0.382125 -0.177121 0.005311 
0.146395 0.142676 -0.473510 
-0.122742 -0.142267 0.386608 
-0.238750 0.052777 0.417631 
0.236498 0.184476 -0.404679 
-0.222889 -0.283248 -0.164646 
0.050893 -0.388951 0.113785 
0.263574 0.223734 0.338431 
-0.024898 -0.078169 -0.432533 
-0.365181 0.004602 -0.297418 
0.429090 0.204929 -0.111149 
-0.197739 -0.378161 0.063934 
0.142166 -0.154191 0.370632 
-0.473242 0.149739 -0.164418 
-0.288220 -0.189482 0.244564 
-0.046536 0.236109 -0.194104 
0.162671 -0.347482 -0.108077 
-0.338482 -0.121492 0.243274 
-0.133920 0.182672 0.476974 
0.296088 0.158334 0.402365 
-0.414650 -0.121550 0.034511 
-0.169870 0.241663 0.064800 
0.395481 -0.143986 -0.078871 
0.366479 -0.088168 -0.224813 
0.047945 0.169265 0.495647 
-0.320463 0.204943 -0.253712 
-0.186486 0.235703 -0.105647 
0.330947 -0.213759 0.134095 
0.248567 0.197276 0.423502 
-0.275418 -0.261388 -0.141267 
-0.154093 -0.286542 0.222316 
-0.482905 0.266978 0.033587 
-0.488967 0.213916 0.059082 
-0.466046 0.213122 0.021549 
0.259005 0.012793 0.392157 
-0.193812 0.199408 -0.337204 
0.455448 0.192631 0.206357 
0.485999 0.162512 0.116281 
0.327688 -0.242731 -0.045482 
0.245863 -0.264230 -0.181169 
-0.356986 -0.041362 0.279095 
-0.181426 -0.164900 0.350446 
0.211461 0.221571 0.251122 
0.091326 0.227738 -0.279105 
-0.089404 -0.161411 -0.376722 
-0.267046 0.051194 0.399762 
0.407527 0.164094 -0.275635 
0.417194 0.007705 0.212810 
-0.132296 0.111341 -0.479511 
0.193001 0.169795 0.459697 
-0.414952 0.250387 0.069891 
-0.450525 -0.020432 0.095930 
0.179400 -0.378503 0.126404 
-0.136525 0.172300 0.478375 
0.069585 0.004199 0.461891 
-0.391350 0.350611 -0.016290 
-0.119117 -0.227313 0.329164 
0.402920 0.094105 -0.284529 
-0.359252 0.108979 -0.343947 
0.041754 0.047138 0.477447 
-0.169379 -0.279807 -0.228116 
-0.173613 0.222848 0.427926 
0.254058 0.243735 -0.090264 
0.468288 0.022058 -0.067391 
-0.343769 0.002412 -0.318860 
0.482181 0.061046 0.034399 
-0.159344 -0.195710 -0.327900 
-0.178631 0.201565 -0.299006 
0.431960 0.201449 -0.152224 
-0.067228 0.225265 0.297707 
0.147179 -0.300305 0.199586 
-0.083325 0.006189 -0.461958 
-0.478696 0.052651 -0.071617 
0.007767 -0.232108 -0.333189 
0.220449 -0.251841 0.234919 
-0.020064 0.064778 -0.487095 
-0.192693 -0.288842 0.185214 
-0.118663 -0.338321 -0.140697 
-0.270244 0.221104 0.376649 
-0.471710 0.044848 -0.103665 
0.188766 -0.377222 0.118508 
-0.339842 0.214253 -0.239906 
-0.260955 0.181540 0.419495 
-0.249739 -0.219709 -0.241061 
-0.423751 0.257223 0.065603 
0.085144 -0.256703 0.307832 
-0.396675 0.020235 0.258046 
-0.487281 0.093110 0.067947 
0.426825 0.220251 0.199991 
-0.355589 -0.030655 -0.288406 
-0.413668 0.341403 -0.108519 
-0.158719 -0.208405 0.328429 
-0.389689 0.323846 -0.171855 
-0.186899 0.224686 0.237942 
0.286647 -0.276423 -0.020156 
0.080159 0.225105 0.332713 
-0.016514 -0.315444 0.219214 
-0.197097 -0.382327 -0.018375 
-0.425008 0.363954 -0.154871 
0.205457 -0.377812 -0.046332 
0.224792 -0.195987 0.297539 
-0.334366 -0.082561 0.279097 
0.021511 0.181156 0.495661 
0.424332 -0.100019 -0.023228 
-0.057487 0.234563 -0.238507 
-0.299122 0.127956 0.395831 
0.417761 0.188616 0.266626 
-0.130359 -0.302026 0.199136 
-0.434891 0.209312 -0.226068 
0.267841 -0.282157 -0.073360 
0.206250 0.202350 -0.236678 
-0.054768 -0.318687 0.211026 
0.114221 -0.392550 -0.074569 
0.019876 0.150425 0.497546 
-0.453824 -0.030692 0.061557 
0.321112 -0.136461 -0.245942 
0.071309 -0.237798 -0.323938 
-0.189709 -0.254490 -0.251158 
-0.110822 0.225475 0.302144 
-0.252736 0.223280 0.241882 
-0.335097 0.214411 0.006109 
0.372167 -0.180267 -0.079527 
-0.372218 0.221404 0.225801 
-0.362551 -0.146693 -0.169255 
-0.146773 0.224962 -0.255404 
-0.433057 -0.030231 0.148045 
-0.006284 0.005103 -0.468484 
0.397695 -0.045054 -0.208965 
0.072102 0.249841 0.199295 
-0.185820 -0.378937 -0.072184 
-0.324637 -0.241100 -0.058327 
-0.400427 0.220907 0.152373 
0.237617 0.210088 -0.195909 
-0.405450 0.302198 -0.138090 
0.039248 0.239149 -0.136643 
-0.078792 -0.074813 -0.428777 
-0.083331 -0.323202 -0.169924 
0.383798 -0.172222 0.027869 
-0.057803 0.183429 -0.463174 
0.239090 -0.076085 0.366774 
-0.074041 -0.389400 0.091486 
0.061302 -0.216299 -0.342634 
-0.386870 0.218957 0.085688 
-0.017963 0.231047 -0.286034 
-0.415402 0.186407 -0.262122 
0.326588 -0.232346 0.096101 
-0.413153 0.229762 0.034180 
0.485061 0.126130 -0.120109 
-0.225470 -0.211716 0.282928 
0.439121 -0.028766 0.118798 
-0.214708 0.237298 -0.044070 
-0.087938 0.241948 0.008292 
-0.270069 0.142031 0.416067 
-0.034430 -0.228300 -0.336917 
0.426372 0.188240 0.253487 
-0.433405 -0.078682 -0.055680 
0.018151 0.152860 -0.491812 
-0.401145 -0.069942 -0.183180 
-0.406167 0.242635 0.068876 
-0.232155 -0.118544 -0.342235 
-0.385284 0.233996 -0.171213 
0.112395 -0.386756 -0.162763 
0.435170 0.206049 -0.058122 
-0.143978 -0.381373 0.131643 
-0.430418 -0.068700 -0.098534 
-0.263461 0.018570 0.391681 
0.273452 0.084501 -0.410063 
-0.220146 -0.204418 -0.283289 
0.399734 0.037869 0.260862 
0.101595 0.226356 0.375777 
0.306157 0.218831 0.046994 
0.378389 0.060876 -0.305472 
-0.485016 0.058075 -0.012362 
-0.132087 0.123137 0.477832 
0.338256 0.031406 -0.337108 
0.359139 0.220514 0.285632 
-0.150460 0.242480 0.072892 
0.232483 -0.206652 -0.271255 
0.075312 -0.248260 0.321294 
0.181653 0.235044 -0.221154 
-0.082840 -0.392192 -0.121502 
0.151643 0.019855 0.447090 
0.152273 -0.261075 0.271777 
-0.370612 -0.053789 0.251386 
-0.174868 0.216895 0.441091 
-0.153985 0.196194 -0.379539 
0.034596 -0.300835 -0.243719 
-0.370141 -0.037897 0.263648 
-0.410737 -0.039010 0.193696 
0.480207 0.197302 0.016861 
-0.017850 -0.386671 -0.193463 
-0.298203 0.220193 0.073356 
-0.335324 -0.235279 0.027223 
0.499164 0.148759 -0.014496 
0.328249 0.218176 0.334992 
0.013871 0.008860 -0.469501 
0.323226 -0.249560 0.005757 
-0.448613 0.186350 -0.179939 
0.363444 0.068244 0.321187 
0.200647 -0.176691 -0.320661 
0.416426 0.052049 -0.244938 
-0.199188 0.202913 -0.262638 
0.496861 0.112901 -0.021681 
-0.196091 -0.187498 -0.313830 
0.454749 0.093986 -0.192856 
-0.296239 0.223846 0.265067 
-0.459035 0.182129 0.179985 
-0.000558 -0.216368 -0.347919 
-0.187179 -0.383940 -0.046765 
-0.137294 0.227221 0.401432 
-0.404883 -0.057651 0.186408 
-0.190653 0.020527 -0.434271 
0.341050 0.100415 -0.359211 
-0.463265 0.215365 0.133057 
0.388390 -0.060854 0.214532 
-0.474858 0.095414 -0.134655 
0.195285 -0.383149 -0.052364 
-0.335248 0.194516 -0.320315 
-0.440041 0.219938 0.016876 
0.151216 -0.039585 0.426164 
-0.184045 0.219870 0.431517 
-0.039035 0.229676 -0.284146 
0.293042 -0.149692 -0.267890 
-0.248620 -0.298829 -0.034188 
0.034830 0.162123 -0.486805 
-0.165088 -0.095154 0.396803 
-0.159696 -0.218112 -0.308852 
0.495388 0.161899 -0.044964 
-0.258665 0.189854 -0.380942 
0.032904 -0.386582 0.141089 
-0.361909 -0.198780 -0.055036 
-0.429580 0.210672 -0.237433 
-0.453937 0.239144 0.104836 
-0.025478 0.098028 -0.495103 
-0.262516 0.196984 -0.352912 
0.167351 0.020298 -0.442277 
-0.323866 0.144969 -0.379536 
0.143071 0.067197 -0.468138 
-0.281058 0.148659 0.408808 
-0.390873 -0.150274 0.085650 
-0.047871 -0.162521 0.391673 
0.380588 -0.045901 -0.237275 
0.095923 -0.258887 -0.296770 
-0.225735 -0.223570 -0.258621 
0.173722 -0.267093 -0.247538 
-0.462480 0.075732 -0.163416 
-0.090770 -0.255622 0.306413 
0.309986 -0.120068 -0.275894 
0.434363 0.165352 -0.232219 
0.089435 -0.328779 -0.166436 
-0.258589 -0.104619 -0.332512 
-0.079682 0.247886 0.264155 
0.200881 0.122400 -0.456327 
0.403435 -0.104743 -0.131029 
-0.105838 -0.231253 0.328306 
-0.449217 0.296073 -0.149642 
-0.449217 0.290710 -0.011137 
-0.199382 0.203558 -0.253611 
-0.438001 0.208902 -0.190465 
-0.135217 0.190711 -0.426975 
0.301362 -0.063574 -0.321041 
0.238941 0.215829 0.411660 
0.061226 -0.219505 0.351486 
0.096421 -0.311147 0.200442 
0.283197 0.046337 -0.388681 
-0.121283 -0.052660 -0.427469 
-0.486909 0.186906 -0.028150 
-0.052063 0.233617 -0.266695 
0.321356 0.054154 -0.363241 
-0.277886 0.218987 0.138301 
-0.385176 -0.169471 -0.027916 
0.066273 -0.374306 0.222125 
0.290686 0.140481 -0.402009 
-0.196671 0.042773 -0.438235 
-0.243460 0.003554 0.398939 
-0.250128 0.242318 0.126695 
0.078659 -0.262955 -0.296149 
-0.163024 -0.053158 0.416568 
-0.401611 0.345882 -0.105060 
0.315320 -0.039703 0.324529 
-0.467738 0.123173 0.169136 
0.152524 -0.284792 -0.231292 
-0.234170 -0.289033 0.125518 
0.049280 0.002339 0.464229 
-0.292764 -0.188098 -0.230368 
-0.046223 -0.385104 0.151939 
-0.429820 0.121999 0.242185 
-0.243044 0.223747 0.258070 
0.330425 0.059045 0.351549 
-0.079077 0.239452 -0.079140 
0.094557 -0.250190 0.312357 
-0.066691 -0.002733 -0.460200 
0.031531 -0.255497 0.319096 
-0.120050 -0.272105 -0.268141 
0.218307 0.206168 -0.221764 
-0.437524 0.210933 -0.062642 
-0.088774 0.228899 -0.275793 
-0.353992 -0.020413 -0.295168 
0.072919 -0.358144 0.216817 
-0.101093 -0.373158 0.205192 
0.498282 0.157128 0.016718 
0.415921 -0.120097 -0.013449 
0.265888 0.192080 -0.352382 
0.170763 -0.074973 -0.400210 
-0.123778 0.138164 -0.481587 
0.390557 0.053176 0.281090 
-0.407927 0.326134 -0.125266 
-0.003627 -0.284816 -0.275213 
-0.390320 0.368741 -0.029490 
-0.359770 0.137681 -0.345153 
0.204518 -0.120172 0.362371 
0.212152 0.223646 0.293969 
0.197462 0.238900 -0.194038 
-0.478082 0.261225 0.058183 
-0.371741 0.236908 -0.174402 
-0.470015 0.196022 -0.100822 
-0.450308 0.342326 -0.116483 
-0.007817 0.136945 -0.498330 
-0.124242 -0.074608 0.419225 
-0.317589 -0.158912 0.237575 
-0.414262 -0.104839 0.095965 
0.322004 0.184806 -0.349133 
0.037204 -0.384172 0.154399 
0.310411 0.197970 0.378384 
-0.130996 -0.390181 -0.021087 
-0.363141 -0.193311 0.083304 
0.449405 0.181418 -0.195373 
-0.010537 -0.372165 0.226494 
0.130999 -0.329027 0.170318 
0.007266 -0.384195 -0.197415 
-0.075633 0.082241 0.481743 
-0.388696 0.216825 0.249448 
-0.395267 0.052213 -0.281596 
-0.240590 -0.141282 0.329038 
0.068765 0.196397 -0.331125 
-0.063481 -0.375291 0.216276 
-0.334167 0.207267 -0.246250 
-0.145842 -0.298417 -0.202095 
-0.136175 -0.082106 -0.410054 
0.032815 0.034073 0.474742 
-0.187986 -0.372545 0.110398 
0.490277 0.117531 0.070005 
-0.051095 -0.395357 0.024417 
-0.194557 0.086327 0.447164 
0.156564 -0.104495 -0.390552 
-0.348063 0.158694 -0.350053 
-0.188741 -0.027854 0.416050 
-0.185644 -0.332332 0.080611 
-0.309772 -0.237928 0.127193 
-0.465356 0.139109 0.179081 
0.231600 -0.241486 0.240508 
-0.011159 -0.186478 0.380174 
-0.426157 -0.060244 -0.126859 
0.039423 -0.258688 -0.309085 
0.464786 0.204135 0.188000 
-0.142708 -0.339740 0.160171 
-0.194519 -0.341392 0.039794 
-0.483205 0.141538 0.126648 
-0.434654 -0.049158 0.114590 
0.398286 0.167457 -0.284976 
-0.276880 0.079493 -0.404276 
-0.067159 -0.118914 -0.408067 
-0.223898 0.058036 0.427500 
0.349571 0.061224 0.332991 
-0.159767 0.229550 -0.234596 
0.294286 0.230150 -0.049817 
-0.406785 -0.108448 0.115524 
0.153921 0.217837 0.448968 
0.192651 0.126617 -0.459779 
-0.394021 0.294095 -0.142605 
-0.317060 0.073448 -0.374157 
-0.468641 0.052456 -0.121697 
0.373966 0.204798 -0.119181 
0.182589 -0.328402 0.103087 
0.070804 -0.391001 0.099400 
-0.366152 0.154444 -0.334668 
0.109096 0.174541 -0.468397 
-0.421059 0.351446 -0.084842 
-0.456632 0.211058 -0.020687 
-0.400615 0.230347 0.098474 
-0.039766 0.195054 -0.380635 
-0.452365 0.262647 0.065959 
-0.014238 -0.398638 0.016473 
-0.429934 -0.088362 -0.046699 
-0.136817 -0.185916 0.355669 
0.009742 -0.385255 0.148765 
-0.231942 0.134351 0.437891 
0.226191 0.250028 0.107146 
-0.388545 0.087916 -0.304415 
-0.032780 -0.061243 -0.439089 
-0.188846 0.223444 0.253893 
-0.221482 -0.274233 -0.190817 
-0.208550 -0.312704 0.059968 
0.111853 -0.182245 0.367029 
-0.071827 -0.390806 -0.156087 
-0.432993 0.214167 -0.184969 
0.354329 -0.168519 0.159982 
0.318757 0.207795 -0.102783 
-0.170663 -0.298748 0.177805 
-0.296857 0.220257 0.086902 
-0.393530 -0.158675 -0.013531 
0.288472 0.123214 -0.406088 
0.123484 0.214232 0.460758 
-0.145653 0.045368 -0.459228 
0.118283 -0.065545 0.425106 
0.158679 0.193195 -0.372773 
-0.496377 0.154133 -0.054023 
-0.010688 -0.385612 0.146500 
0.327669 -0.000021 -0.332047 
0.143989 0.079608 0.465094 
-0.221821 -0.267359 -0.200035 
0.350100 0.175267 -0.333904 
0.246159 0.232633 -0.160731 
-0.113153 -0.025159 0.442079 
-0.369526 0.245483 -0.213938 
-0.395432 0.184701 0.294292 
0.118486 0.225639 0.431227 
0.149036 -0.376284 0.171003 
0.231020 -0.179883 -0.297600 
-0.421715 -0.035536 0.171524 
0.430560 0.126893 0.251319 
-0.223912 -0.309524 0.017191 
-0.417070 0.248514 0.016943 
0.109691 -0.119459 -0.396954 
0.080609 0.078376 -0.486068 
0.481615 0.192190 -0.031785 
-0.195099 0.063893 -0.446753 
0.274255 -0.275409 0.088682 
0.284794 0.221662 0.115607 
0.307225 -0.203442 -0.190273 
0.210552 0.224462 0.322294 
-0.192380 -0.354060 0.078513 
0.126642 -0.097704 -0.404620 
-0.426705 -0.100850 0.007170 
-0.422848 -0.096973 0.068797 
0.207078 -0.302568 -0.121733 
-0.379670 0.087363 -0.316390 
-0.245254 0.201064 -0.305538 
-0.342413 0.212510 -0.077290 
-0.424774 -0.011846 -0.188180 
-0.424774 0.123158 0.254625 
0.100359 -0.345093 0.196819 
0.316137 -0.229760 0.134688 
0.388454 0.127755 -0.314236 
-0.451057 0.246171 0.013140 
-0.062815 0.101431 -0.491521 
-0.289944 0.218587 0.131311 
0.148659 -0.260395 -0.272474 
0.370290 0.203915 -0.176346 
0.380421 -0.039058 0.245672 
-0.206078 0.012361 -0.423733 
-0.068970 0.041247 0.472927 
0.106213 -0.384181 -0.172922 
0.048209 -0.397369 -0.025177 
-0.199186 -0.264295 -0.230919 
0.252393 0.242744 0.147347 
-0.200423 -0.378704 0.051593 
0.161817 0.209712 -0.261443 
-0.150538 -0.310371 0.160637 
0.005687 0.244845 0.072847 
0.105457 0.138231 0.485825 
-0.144345 -0.203676 0.339287 
-0.400719 -0.046339 0.206477 
-0.381384 -0.141383 -0.134375 
0.201753 -0.334163 0.036173 
-0.191511 -0.324040 0.048712 
0.050764 -0.005046 -0.461846 
-0.450981 0.314295 -0.021836 
0.135083 -0.215487 -0.322670 
-0.107363 0.174502 -0.469898 
0.011125 0.248328 0.277930 
0.352579 0.110797 -0.351265 
-0.484126 0.176749 0.128664 
0.008822 0.202429 -0.309781 
0.469380 0.017540 0.031139 
0.106505 -0.232247 -0.319630 
-0.215453 0.125664 0.446178 
0.287249 -0.083026 -0.323604 
-0.301599 0.118343 -0.396860 
-0.357367 0.219944 -0.202646 
-0.276977 -0.241363 0.181822 
-0.072369 -0.145315 -0.391069 
0.287013 0.003758 -0.368266 
-0.467613 0.001105 0.039435 
-0.435461 0.090452 0.221774 
0.080005 -0.378836 0.201719 
0.283019 -0.148766 -0.278189 
0.419910 0.212783 0.071836 
-0.273042 -0.273299 -0.098222 
0.280466 0.218699 0.178669 
0.387676 -0.090197 0.187657 
0.333114 0.156647 0.373201 
0.080798 0.224554 0.310223 
0.332149 -0.050983 0.300581 
-0.054545 -0.184149 0.378371 
-0.407592 0.081423 0.267841 
0.494568 0.150785 0.073012 
-0.303177 -0.263649 -0.040974 
-0.185620 -0.322651 0.077062 
0.157619 -0.266305 -0.258173 
-0.279189 -0.052679 -0.349257 
0.115616 0.126008 0.482190 
-0.346869 -0.102987 -0.242998 
-0.277649 0.016465 -0.381932 
0.447402 0.016135 -0.150977 
-0.400228 0.392619 -0.085312 
0.431164 -0.051187 -0.116165 
-0.000770 0.225860 0.301391 
0.005881 -0.224294 -0.342074 
-0.249024 0.226144 0.327871 
-0.432704 0.201546 -0.174098 
-0.324901 0.049181 -0.358922 
-0.101295 0.121064 -0.487552 
0.335283 0.012456 0.328303 
0.309378 0.216088 0.104495 
0.098245 0.246354 0.060208 
-0.364240 -0.153063 -0.154919 
-0.156061 -0.072038 0.410503 
0.248359 0.249557 0.078803 
-0.293472 0.216651 0.370618 
-0.305115 0.221936 0.209617 
-0.240632 -0.202057 -0.268845 
-0.490293 0.162761 -0.080345 
-0.411406 0.215550 0.015137 
0.226639 0.059198 0.424498 
-0.390523 0.305901 -0.140199 
-0.358802 0.213686 -0.080611 
0.277317 -0.274627 -0.083577 
0.188337 0.018895 -0.433542 
0.281962 0.067773 -0.397691 
-0.372321 -0.174700 -0.084090 
-0.137208 -0.310977 0.167645 
0.202697 -0.338282 0.003938 
0.115691 -0.341284 -0.151716 
-0.462801 0.117532 -0.185019 
0.188007 -0.381016 -0.078974 
0.276562 -0.207509 -0.230094 
-0.411132 0.092186 -0.276456 
-0.415220 0.252526 -0.214806 
0.258480 0.221211 0.166469 
-0.203899 0.236707 -0.067844 
0.193445 -0.333992 0.081001 
0.215523 -0.376157 -0.000607 
0.186875 -0.321402 -0.066670 
-0.426068 0.211101 -0.087474 
0.028392 -0.238768 -0.328825 
0.365007 -0.137653 0.180076 
0.473421 0.033210 0.040824 
0.328410 0.193710 -0.304323 
-0.006850 -0.117634 0.418374 
0.110706 0.240434 -0.131379 
-0.379231 0.317387 -0.169113 
0.115351 0.211806 0.467332 
-0.464689 0.371900 -0.120007 
0.020226 0.225122 0.306304 
0.041109 -0.379930 0.203235 
0.042657 0.227049 0.431673 
-0.033133 -0.290680 0.265475 
-0.002185 -0.029994 -0.456310 
0.445212 -0.007410 -0.126812 
0.185742 0.052535 -0.445806 
0.040731 0.243523 -0.010105 
0.087142 -0.113105 -0.407188 
0.241820 0.193002 -0.353168 
-0.485176 0.189803 0.122850 
-0.399699 0.212290 -0.181594 
-0.269379 0.207069 -0.188961 
-0.186238 0.195392 -0.377610 
-0.060563 -0.156720 -0.385451 
-0.209047 -0.295229 -0.151405 
-0.479733 0.099536 -0.124308 
0.328850 0.029632 0.341297 
0.082144 -0.210453 -0.344778 
-0.362554 0.245121 -0.204274 
-0.322336 0.222170 0.199596 
-0.224114 0.225278 0.386689 
0.235245 0.199352 -0.273938 
-0.422484 -0.110279 0.015210 
-0.219470 -0.180809 0.314515 
0.449125 0.205682 -0.061606 
-0.110032 -0.092126 0.415783 
-0.193942 -0.324443 0.014121 
0.339101 -0.063765 -0.284259 
0.218280 0.221228 0.218959 
-0.389214 0.360979 -0.069132 
-0.308779 0.221080 0.187434 
-0.019137 0.245260 0.094369 
0.277077 0.203314 -0.185755 
-0.293296 -0.214238 -0.196366 
0.035393 -0.042102 -0.447539 
0.318843 0.198779 -0.250787 
-0.394992 0.224747 0.089845 
0.130173 0.212763 -0.275491 
0.344371 -0.206944 0.111011 
-0.016795 0.159123 -0.489529 
0.413447 0.023405 0.230408 
-0.239144 -0.296850 -0.081222 
-0.004031 -0.263330 -0.304533 
-0.348959 -0.143818 -0.199841 
0.316724 -0.218342 0.156070 
-0.415857 0.017448 -0.232516 
-0.094889 -0.367674 0.210237 
-0.278569 0.223649 0.261964 
0.330474 -0.241945 0.002493 
0.457698 0.004788 -0.093607 
-0.059694 -0.062925 0.438792 
-0.050027 -0.364439 -0.182267 
-0.170893 -0.353721 0.129774 
-0.101838 -0.354044 0.199701 
-0.236010 0.242591 0.135856 
-0.478071 0.288253 0.036494 
-0.457188 0.307740 -0.151282 
-0.230194 -0.296680 -0.108632 
-0.443311 0.200211 -0.206054 
-0.196925 -0.315778 0.064921 
0.336327 0.212375 0.020943 
-0.340387 -0.097318 -0.258969 
-0.000482 -0.111221 -0.417251 
0.089621 -0.092015 -0.417711 
-0.171397 -0.339623 0.119647 
-0.293976 -0.152104 -0.262251 
-0.390649 0.220894 0.179384 
0.045929 -0.369272 0.231051 
-0.191110 0.225902 0.397770 
-0.421577 -0.103229 -0.050698 
0.119794 -0.086644 -0.412403 
-0.450579 0.372876 -0.140202 
-0.034884 -0.084874 -0.428932 
-0.416933 0.353221 0.004944 
-0.212370 0.242669 0.109238 
-0.455076 0.308300 -0.169453 
-0.444876 0.360888 -0.155250 
-0.425161 -0.048983 0.148344 
-0.192620 -0.331308 -0.005610 
0.010394 0.244052 0.032068 
-0.479544 0.349228 -0.009278 
-0.225096 0.018713 0.415518 
0.480620 0.057563 -0.049211 
-0.183330 0.117587 0.458401 
0.167791 -0.387315 -0.105932 
-0.072345 0.202540 -0.301518 
0.259442 -0.171315 0.288873 
-0.325622 -0.089215 0.285352 
-0.189011 -0.333402 -0.028029 
-0.167528 0.204058 0.455487 
-0.116414 0.244084 0.092266 
0.080029 -0.212878 0.352868 
-0.273018 0.093077 -0.411611 
-0.397476 0.356735 -0.065413 
-0.227149 -0.183086 -0.296859 
-0.347260 0.217917 0.307455 
-0.190759 -0.162137 0.346817 
0.290407 -0.250483 -0.141363 
-0.442763 0.226483 0.023432 
0.419179 -0.086149 0.099329 
0.161258 -0.044869 -0.418039 
-0.309346 0.195034 -0.334067 
0.048346 0.141801 -0.493605 
0.252909 -0.191919 0.276991 
-0.362705 -0.024673 -0.283794 
-0.043683 -0.217335 -0.344402 
0.102876 0.153363 0.487529 
-0.127592 -0.197451 -0.339160 
-0.354963 0.148441 -0.348386 
-0.230710 0.014180 -0.412956 
-0.382795 0.219193 0.120515 
0.247131 0.069045 -0.421824 
-0.494158 0.103562 -0.031356 
-0.442725 0.209962 -0.197901 
0.456338 0.209312 0.044289 
-0.217279 0.074161 -0.439167 
0.328737 -0.146031 -0.225669 
-0.481772 0.289730 0.004996 
-0.064798 0.017298 0.466592 
-0.476906 0.179801 -0.112459 
0.140035 0.095690 0.470113 
-0.262897 -0.160568 0.295658 
-0.269997 -0.286717 -0.034180 
-0.488720 0.202286 0.066906 
-0.025065 0.211790 -0.303169 
0.380963 -0.059684 0.228576 
-0.486226 0.095146 0.084455 
0.145917 -0.085468 0.407746 
0.261665 0.244682 -0.059116 
-0.326679 0.187970 -0.341694 
-0.276794 -0.239702 -0.179858 
0.034649 -0.124993 -0.407271 
0.348109 0.210335 -0.037231 
-0.143358 -0.368169 -0.129180 
-0.467422 0.147918 -0.180115 
-0.222642 0.211031 -0.210712 
-0.251644 0.128345 0.425662 
0.447502 -0.034075 -0.080925 
-0.053652 -0.226365 -0.335665 
-0.183060 0.094778 -0.460662 
0.360118 -0.199721 -0.069382 
0.166771 0.241397 0.239410 
-0.363385 -0.179484 -0.108398 
-0.226493 0.236035 -0.081110 
-0.108617 -0.380138 -0.163747 
-0.183179 -0.317531 -0.090082 
-0.304649 0.164539 0.390458 
-0.268637 -0.061650 0.353163 
0.203137 -0.012576 -0.413956 
0.338480 0.128966 0.364770 
0.111108 0.194037 -0.364692 
0.286669 0.223522 0.105138 
0.199663 -0.330649 -0.014431 
-0.148362 -0.342408 -0.111713 
0.436324 -0.038053 -0.117151 
-0.284082 -0.277684 0.033147 
-0.409205 -0.131589 0.023497 
0.174928 -0.334158 0.118738 
-0.357369 -0.110302 -0.220678 
0.420487 -0.045827 -0.160164 
0.043461 -0.248096 -0.318610 
0.067904 0.102840 -0.493156 
0.306028 -0.162659 -0.240509 
-0.311134 0.215701 0.018052 
0.017059 -0.134203 0.410547 
0.001317 -0.279506 -0.285024 
0.101087 0.223336 0.300856 
-0.245389 -0.299108 0.032538 
-0.079495 0.212530 0.472041 
0.274722 -0.177156 -0.262376 
-0.381109 -0.072791 0.220690 
0.347038 -0.219786 0.048658 
0.120100 0.057100 -0.470613 
-0.391154 0.304649 -0.183140 
0.209770 -0.266875 -0.219319 
0.472336 0.057801 0.093160 
0.336993 -0.124150 -0.234157 
-0.349917 0.184162 0.348391 
-0.481634 0.078859 0.086496 
-0.223391 -0.239133 0.253513 
-0.112727 -0.358249 0.195641 
-0.215971 0.226841 0.370070 
0.083716 0.014038 0.462667 
-0.403125 0.250188 0.026092 
0.051240 0.240626 0.285124 
-0.335453 -0.231448 0.057148 
-0.314570 0.127411 -0.388434 
0.286353 -0.044520 -0.346045 
-0.421289 0.327624 -0.122691 
